ply
format ascii 1.0
comment PCL generated
element vertex 1126
property float x
property float y
property float z
property uchar red
property uchar green
property uchar blue
element camera 0
property float view_px
property float view_py
property float view_pz
property float x_axisx
property float x_axisy
property float x_axisz
property float y_axisx
property float y_axisy
property float y_axisz
property float z_axisx
property float z_axisy
property float z_axisz
property float focal
property float scalex
property float scaley
property float centerx
property float centery
property int viewportx
property int viewporty
property float k1
property float k2
end_header
1.4771961 -0.18466593 0.68430251 24 112 130
1.4843409 -0.18452296 0.68609637 32 91 103
1.4975373 -0.18629286 0.68464649 36 82 92
1.5036865 -0.18402815 0.68547988 34 80 90
1.5155421 -0.18544832 0.68578923 41 47 45
1.5203369 -0.18059406 0.68520224 40 41 37
1.448336 -0.1764541 0.68853807 33 40 40
1.4545014 -0.1762469 0.68522042 37 43 42
1.4604803 -0.17435189 0.68204385 40 45 42
1.4777161 -0.17790009 0.68193507 28 102 116
1.4852383 -0.17590079 0.68444723 26 103 120
1.4950889 -0.17483968 0.68567479 35 91 102
1.5054147 -0.17525624 0.68490988 24 103 119
1.5142637 -0.17369638 0.68515015 33 82 90
1.5215468 -0.17419861 0.68649495 43 42 37
1.479097 -0.16673583 0.68279904 23 108 124
1.4859717 -0.16454646 0.68408018 33 87 97
1.4931706 -0.16441865 0.68536854 35 71 78
1.5040188 -0.16511373 0.6847055 22 108 126
1.5132236 -0.16557276 0.68323189 27 108 124
1.5226027 -0.16511212 0.68547684 45 42 38
1.466626 -0.15667206 0.68086922 1 26 37
1.4792199 -0.15496002 0.6817559 12 36 40
1.4851953 -0.15605763 0.68544352 30 66 74
1.4951515 -0.1550456 0.68525803 33 66 74
1.5035217 -0.15533428 0.6842944 23 108 125
1.5129315 -0.15508644 0.68485749 26 104 120
1.5230979 -0.15650396 0.68330139 45 45 41
1.5673186 -0.15047765 0.6825428 30 41 44
1.5721798 -0.15143843 0.6836403 35 44 45
1.4446105 -0.14563116 0.68051153 29 62 67
1.4856644 -0.14686537 0.68534535 24 45 51
1.495751 -0.14513856 0.685251 27 43 48
1.504886 -0.14423427 0.68579751 21 68 78
1.5120575 -0.1455584 0.68630356 22 98 115
1.5356503 -0.14671731 0.68023634 1 25 35
1.5672051 -0.14650595 0.68296951 18 40 46
1.5737354 -0.14664784 0.68340224 11 42 51
1.6956598 -0.14480297 0.68314677 1 65 84
1.4890413 -0.13280517 0.68413758 19 54 64
1.4964488 -0.13518876 0.6863513 27 52 58
1.5051544 -0.13554643 0.68557501 27 63 70
1.5123066 -0.13424841 0.68572336 12 49 58
1.5460391 -0.13431489 0.68814451 11 50 60
1.5688751 -0.13425335 0.6825096 14 51 63
1.5713935 -0.13604377 0.6847412 24 64 76
1.6988972 -0.13870941 0.68121034 6 81 98
1.4852543 -0.12525144 0.68327761 26 63 72
1.4961526 -0.12820077 0.68609995 29 60 68
1.5060002 -0.12586573 0.68552214 20 38 43
1.5133277 -0.12520047 0.68508816 19 38 43
1.5230412 -0.12420785 0.68180364 9 35 44
1.533498 -0.12302601 0.68261451 7 42 50
1.5411848 -0.12712111 0.68531197 16 55 62
1.5672326 -0.12982568 0.68047756 0 32 39
1.4872097 -0.11467773 0.6845212 26 41 45
1.5064955 -0.11569708 0.68509942 27 40 42
1.515348 -0.11588279 0.68434966 16 33 37
1.5214649 -0.1140174 0.68645245 21 47 53
1.486975 -0.10426949 0.68503118 26 42 46
1.4900761 -0.10282388 0.68902338 27 41 45
1.5040157 -0.10504825 0.68469656 30 41 44
1.5162691 -0.10514686 0.68478608 19 44 50
1.5205714 -0.10698967 0.68722689 19 49 56
1.483777 -0.095522709 0.68543273 26 42 46
1.4935899 -0.090259239 0.68944144 27 111 130
1.5069715 -0.093819775 0.68549216 23 46 53
1.5131577 -0.094938122 0.68616754 40 63 68
1.4795423 -0.088608444 0.68912375 31 44 43
1.4851079 -0.084720135 0.68568486 26 54 59
1.4946735 -0.083134815 0.68630052 30 89 103
1.5051893 -0.084882155 0.68507963 26 54 61
1.5145519 -0.085518047 0.68613535 45 60 62
1.5256671 -0.083810009 0.68518472 67 85 89
1.5315878 -0.080820605 0.68763953 68 87 91
1.4852275 -0.074890487 0.68475324 30 42 44
1.4956377 -0.075175226 0.68495399 39 101 116
1.5048199 -0.074809827 0.68435854 32 65 74
1.5138259 -0.072936632 0.68411505 47 62 64
1.5265851 -0.074833706 0.68430942 54 69 73
1.5324835 -0.07442943 0.6882357 60 77 81
1.4868817 -0.066758871 0.68139684 34 46 47
1.497447 -0.065296777 0.68614876 49 90 103
1.5027084 -0.06487637 0.68356621 43 83 94
1.5133426 -0.064768821 0.68504375 47 64 66
1.5278742 -0.06564489 0.68799293 41 53 57
1.5342706 -0.064169064 0.68857777 55 70 73
1.4873489 -0.050232172 0.68544835 37 47 49
1.4979916 -0.053948365 0.68467015 41 70 82
1.502225 -0.055554878 0.68486595 29 65 76
1.5133567 -0.055127878 0.68529439 43 55 55
1.5251608 -0.058570135 0.68884021 45 58 61
1.5352169 -0.057933822 0.68928331 56 71 73
1.4786845 -0.041169919 0.68184847 40 104 124
1.4863312 -0.043736454 0.68370754 44 100 115
1.4935793 -0.046730064 0.6855849 42 95 111
1.5046504 -0.044905838 0.68421906 32 49 55
1.5124834 -0.046002619 0.68586016 43 57 61
1.5240072 -0.042590633 0.68006688 42 43 43
1.4764704 -0.035899922 0.68193609 32 99 118
1.4814239 -0.038952947 0.68191856 19 86 106
1.4960365 -0.034147922 0.68550527 36 52 55
1.5031192 -0.03576557 0.68431407 32 50 55
1.5107878 -0.039748795 0.68777406 31 49 56
1.4872934 -0.024308549 0.68491268 28 42 41
1.4946026 -0.02519116 0.68505192 28 46 48
1.5038871 -0.024789214 0.68441737 57 75 77
1.5107551 -0.020554796 0.6864298 62 81 85
1.4872569 -0.014794633 0.68499762 20 41 47
1.4951363 -0.01420687 0.68424064 37 88 98
1.5062457 -0.014659546 0.68511629 46 69 71
1.5113503 -0.014871206 0.68517721 46 66 68
1.4785885 -0.00081863103 0.68500501 17 68 84
1.4854895 -0.004880189 0.6843164 26 75 89
1.4949365 -0.0052270805 0.68487054 28 59 66
1.5039415 -0.0048488509 0.68473363 42 63 67
1.5112858 -0.0073224474 0.68545562 47 70 72
1.4770945 0.0022103814 0.6869058 25 86 102
1.4848793 0.0053779194 0.68415797 25 107 125
1.4950837 0.0047877487 0.68444788 19 41 45
1.5043434 0.0049042488 0.68477058 25 37 40
1.5114573 0.0050486405 0.6853956 26 40 44
1.4886384 0.012580239 0.68741661 21 79 92
1.4944763 0.015539811 0.68428218 26 88 102
1.5046591 0.015066819 0.68455362 30 33 34
1.5115572 0.012034352 0.68207592 45 55 56
1.4969376 0.024824375 0.68499088 68 67 76
1.503872 0.023868628 0.68339336 65 34 36
1.5121837 0.026363045 0.68529624 29 41 40
1.5260739 0.026939092 0.68093729 144 223 226
1.5366627 0.028514925 0.68358582 113 188 184
1.5409656 0.028347 0.68576002 131 185 182
1.4890013 0.03759031 0.6893335 196 86 82
1.4957116 0.035354353 0.68467164 171 72 69
1.5037004 0.035433859 0.68493694 146 64 61
1.5141305 0.03623822 0.68500447 75 42 40
1.5249751 0.036146928 0.68400681 191 64 58
1.535332 0.033202644 0.684466 144 115 97
1.5407873 0.030750411 0.68621147 96 148 131
1.4792469 0.048313007 0.68932229 203 85 81
1.4869199 0.046649866 0.68599403 217 94 93
1.4947866 0.04518187 0.6848911 210 95 94
1.5039202 0.044418078 0.68543959 119 54 53
1.5126603 0.043360963 0.68457991 48 42 38
1.4792824 0.052637868 0.68858618 204 89 84
1.4859952 0.055147558 0.68421173 219 85 86
1.4934816 0.054973155 0.68565625 222 103 103
1.5034711 0.054615635 0.6842705 63 45 43
1.5119302 0.051676989 0.68052942 34 43 35
1.4881885 0.065193377 0.68435478 232 109 110
1.4933159 0.064698994 0.68545848 218 93 91
1.5046629 0.065386243 0.68519336 116 58 56
1.5117737 0.067364916 0.68408722 33 39 38
1.4790999 0.075534098 0.68923432 251 130 128
1.4870412 0.074871756 0.6846633 243 123 123
1.4948407 0.074586898 0.6849975 211 85 81
1.5037684 0.075633474 0.68515509 187 68 65
1.5131375 0.075603306 0.68581051 56 43 41
1.4884094 0.083638407 0.68429106 245 128 127
1.4946644 0.085963681 0.68535745 211 95 92
1.5041003 0.084678352 0.68492371 164 56 54
1.5139875 0.084202781 0.68464661 54 41 38
1.5209816 0.086495467 0.68201172 30 39 36
1.4878118 0.095536336 0.68494904 201 81 72
1.4950736 0.094504781 0.68522853 218 97 95
1.5036569 0.09583772 0.68447077 145 66 64
1.5130796 0.094349861 0.68248492 31 40 37
1.5234299 0.095982723 0.68647152 31 40 40
1.4879915 0.10515959 0.68632209 201 73 67
1.4957194 0.10533783 0.68457949 227 95 92
1.5041929 0.10475704 0.68488693 137 77 75
1.5135666 0.1049563 0.68717909 96 63 60
1.5226707 0.10191412 0.6882152 32 43 43
1.487879 0.11520313 0.68521518 212 67 67
1.4950178 0.11482567 0.68497819 229 96 92
1.5061686 0.11471821 0.68507892 88 47 42
1.5137008 0.11576811 0.68465364 143 78 70
1.5210904 0.11734241 0.68894148 198 97 87
1.4883748 0.12373412 0.68540162 219 72 73
1.4949369 0.12445086 0.68471009 221 83 78
1.5047394 0.12498612 0.68449652 179 72 61
1.5137337 0.1252472 0.68513942 83 57 52
1.5205752 0.12304289 0.68895757 196 97 86
1.4879794 0.13608502 0.68412727 251 128 127
1.4948854 0.13513628 0.6851874 219 81 76
1.5051974 0.13560435 0.68342096 178 68 59
1.5155622 0.13506064 0.68487936 66 51 47
1.5209436 0.13549952 0.68856305 198 100 88
1.4874026 0.14539318 0.68454081 246 123 122
1.4954244 0.14476377 0.68522733 215 73 69
1.5041701 0.14543064 0.68458354 153 68 61
1.5144678 0.14477134 0.68539739 78 56 52
1.5208769 0.14386596 0.68553782 30 41 40
1.4878432 0.15472268 0.68508893 241 113 112
1.4953434 0.15531781 0.68467677 213 80 75
1.5028416 0.15423957 0.68574262 160 67 59
1.5145149 0.15436247 0.68466878 32 40 39
1.5208828 0.15762165 0.68895924 45 46 42
1.4874151 0.1651834 0.6853295 240 109 105
1.4947289 0.16494451 0.68442887 211 85 79
1.5033143 0.16412571 0.68544787 155 50 45
1.5138539 0.16602102 0.6855244 32 42 40
1.5232316 0.16402826 0.68812698 45 46 41
1.4869658 0.17509757 0.68527097 228 95 90
1.4948492 0.17467068 0.6850819 199 69 63
1.50574 0.1758797 0.68502182 75 53 50
1.5123672 0.17263718 0.68785197 40 43 38
1.5272111 0.17574044 0.68536294 40 42 38
1.4867195 0.18499175 0.6847769 228 100 99
1.4945639 0.18510829 0.68463296 207 67 65
1.5034127 0.18506211 0.68511784 138 66 63
1.5152671 0.18747556 0.68514597 40 41 38
1.525548 0.1850801 0.68547225 40 41 38
1.4799526 0.19317143 0.68981469 237 108 107
1.4845858 0.19481708 0.68474138 230 110 105
1.4948735 0.1947794 0.68515676 204 76 71
1.5041335 0.19486412 0.68496072 193 69 66
1.5114279 0.19133545 0.68353194 36 37 35
1.4861805 0.2049861 0.68466628 225 97 87
1.4944042 0.20510444 0.68563008 202 72 67
1.5028245 0.20518471 0.68526173 203 72 70
1.4876784 0.21453014 0.68405628 217 90 85
1.4945202 0.2155111 0.68535221 210 87 83
1.5026155 0.21388192 0.68536574 212 65 63
1.5110122 0.21910356 0.68722266 207 76 79
1.487776 0.22552215 0.68553096 217 100 97
1.4939361 0.22461426 0.68460691 215 91 87
1.5016612 0.22537816 0.68671054 204 84 81
1.5137402 0.22497356 0.68720675 202 68 69
1.478431 0.23580271 0.68059748 222 98 77
1.4854645 0.23439483 0.68480086 220 106 102
1.4955083 0.23490116 0.68460733 201 78 74
1.5034919 0.23561302 0.68500376 207 70 69
1.5126424 0.23403448 0.68799782 200 69 70
1.4775727 0.24737808 0.68152195 218 98 87
1.4841876 0.24537925 0.68563187 220 109 106
1.495479 0.24504849 0.68459475 202 73 70
1.5040413 0.24546856 0.68509626 205 77 74
1.47817 0.2565223 0.68334216 215 106 97
1.4829786 0.25481057 0.68552405 215 110 108
1.4955583 0.25508544 0.68478405 205 73 70
1.5018803 0.25390515 0.68499756 197 77 74
1.4787911 0.26361665 0.68547434 219 115 113
1.4841998 0.26572168 0.68514633 208 96 91
1.4943924 0.26431379 0.68453574 207 66 64
1.5023346 0.26453972 0.68537694 197 67 64
1.4795843 0.27360263 0.68822867 207 65 63
1.484372 0.27504545 0.68515009 210 96 90
1.4963095 0.27531007 0.68384808 201 66 63
1.5028872 0.27554971 0.68678987 197 62 60
1.4786663 0.28640127 0.68587577 216 105 94
1.4841889 0.283923 0.68466902 208 93 85
1.4950891 0.28585064 0.68382716 200 64 63
1.5026677 0.28426737 0.68796837 200 65 62
1.4789988 0.29173228 0.68587977 212 104 90
1.4841057 0.29539743 0.68535042 204 103 96
1.4940761 0.29493582 0.6842792 200 71 69
1.5010649 0.29654247 0.68661237 198 61 63
1.4773142 0.30606511 0.68793321 179 84 78
1.4854319 0.30498838 0.68459678 204 112 110
1.4947159 0.30489784 0.68466276 206 73 71
1.5036868 0.30545115 0.68466538 196 66 68
1.4763391 0.31465381 0.68508071 171 58 52
1.4857688 0.31498814 0.68484813 204 112 113
1.4936393 0.31475347 0.68504053 204 58 53
1.5069575 0.31445193 0.68409961 194 67 72
1.5103406 0.31679058 0.68717819 194 71 74
1.4770834 0.32580328 0.68265527 185 94 94
1.4841118 0.32492787 0.68520111 198 106 109
1.4947509 0.32554802 0.68472958 205 51 44
1.5046002 0.32342121 0.68495107 198 73 76
1.5114993 0.32482541 0.68413645 193 75 76
1.4688581 0.33339643 0.6843645 178 95 92
1.4751858 0.33472556 0.68382865 188 103 104
1.4854857 0.33521828 0.68535084 197 99 101
1.4939318 0.33430463 0.68513447 205 56 49
1.5037711 0.3369908 0.68560213 203 61 56
1.5111034 0.33336273 0.68276775 195 81 81
1.4774159 0.34290344 0.68425387 183 97 94
1.4859673 0.34517232 0.68522274 200 107 110
1.4935338 0.34554559 0.68421423 205 57 50
1.5036703 0.3439748 0.68486035 204 65 61
1.4788288 0.3591927 0.68009955 199 120 124
1.4862727 0.35530272 0.68464577 200 108 113
1.4945767 0.3557604 0.68507922 201 72 68
1.5025947 0.3566376 0.68582147 213 43 34
1.5102074 0.35442042 0.6850298 214 42 31
1.479323 0.36495748 0.68333757 199 119 121
1.4841315 0.36491385 0.68532073 199 110 113
1.4946284 0.36484233 0.68486881 196 68 62
1.5022597 0.36667964 0.68773323 182 78 71
1.4789296 0.37447914 0.68739223 187 109 105
1.4842802 0.37484792 0.68509716 194 101 99
1.4937018 0.37513295 0.68352276 197 67 61
1.5043821 0.37502331 0.68562758 191 71 65
1.5121932 0.37736425 0.68767089 173 88 82
1.4792651 0.38408923 0.68727934 171 93 85
1.4846368 0.3850368 0.68475682 193 103 99
1.4928604 0.38426319 0.68473083 195 73 70
1.5044525 0.38384405 0.68639123 197 67 59
1.5135524 0.3832109 0.68760049 175 94 89
1.4671122 0.39847934 0.68535948 173 90 89
1.475449 0.39548844 0.68505991 172 91 86
1.4859164 0.39448252 0.68492085 193 102 98
1.4925984 0.39552781 0.68495351 200 75 71
1.5020518 0.39398265 0.68798399 212 47 36
1.4672644 0.4044936 0.6843552 174 90 87
1.4741675 0.40460086 0.68570757 176 92 90
1.4866711 0.40549949 0.68452603 196 101 99
1.4931629 0.40539142 0.68524563 198 92 89
1.5002797 0.40071797 0.68892282 210 50 32
1.4696494 0.41137925 0.68355799 174 90 88
1.4766961 0.41576546 0.68486607 187 98 99
1.4850359 0.41476089 0.68508607 197 104 103
1.49253 0.41421273 0.68560189 197 81 81
1.4780352 0.42415857 0.68400449 192 104 107
1.4834819 0.42482039 0.68555748 196 96 95
1.4918303 0.4251793 0.68488556 195 78 77
1.478821 0.43173733 0.68478978 191 89 92
1.4842833 0.43537122 0.68534797 195 98 98
1.4923916 0.4345763 0.68468267 193 78 74
1.4848917 0.4447163 0.68513858 196 95 94
1.4931546 0.4452059 0.68474674 184 87 85
1.4787124 0.45596078 0.68044162 198 121 122
1.4846493 0.4546788 0.68479174 197 91 88
1.4930102 0.45494172 0.68486369 179 90 87
1.4788096 0.46648684 0.68203199 196 121 127
1.485559 0.46538025 0.68518382 197 82 80
1.4943374 0.46569207 0.68554586 183 94 93
1.5006752 0.46912882 0.68528938 176 93 92
1.4775916 0.47394687 0.68410975 196 118 123
1.4851741 0.47466129 0.68510419 194 87 85
1.4933248 0.47425297 0.68575847 186 82 79
1.5014596 0.47484857 0.68523127 178 89 88
1.477795 0.48420793 0.68460667 191 113 115
1.484858 0.4851608 0.68497461 192 97 95
1.4943236 0.48488271 0.68528694 192 54 47
1.5030409 0.484626 0.68526405 175 92 91
1.4764576 0.49509752 0.68551326 193 68 66
1.4848644 0.49476328 0.68496525 193 94 93
1.4956232 0.49575588 0.68374985 191 45 36
1.5036794 0.4957765 0.68513024 182 71 64
1.4783746 0.50427705 0.68655276 193 50 45
1.4858252 0.50441366 0.68468863 189 68 62
1.4937736 0.50515068 0.68439376 188 73 69
1.5014343 0.50435644 0.68686008 186 53 42
1.478655 0.51735514 0.6855669 175 82 72
1.4847602 0.51508456 0.68431407 184 53 44
1.4938776 0.51516861 0.68489808 189 58 49
1.501706 0.51551288 0.68705773 177 88 86
1.478157 0.52484703 0.68418884 178 71 63
1.4846517 0.52549303 0.68446183 186 49 40
1.4939513 0.52497381 0.68573612 185 76 75
1.5022349 0.52302909 0.68691224 174 91 89
1.4795235 0.53540707 0.6855635 190 27 16
1.4841748 0.53492713 0.68505734 186 59 52
1.4917037 0.53259742 0.68690318 182 77 74
1.4786803 0.54573095 0.68562669 188 16 6
1.4848486 0.54445076 0.68532777 186 58 51
1.4927127 0.54668152 0.68510306 177 87 83
1.4785367 0.55404079 0.68469387 187 20 9
1.4865086 0.55509442 0.68576092 188 51 43
1.4940761 0.55553645 0.68492264 179 84 79
1.4772015 0.56577724 0.6853177 178 69 65
1.4855039 0.56541151 0.6851446 187 51 44
1.4943542 0.56452256 0.68439025 176 84 78
1.478723 0.57414687 0.68772155 189 58 55
1.4851468 0.57548058 0.68502587 186 55 46
1.4941449 0.57262665 0.68489701 172 92 82
1.5011966 0.57853854 0.68871033 176 94 87
1.4771906 0.58551508 0.6865105 188 45 39
1.4830979 0.5841164 0.68367726 187 45 37
1.497656 0.58487517 0.68258166 172 92 86
1.5026093 0.58616412 0.687509 175 93 86
1.4776335 0.59459025 0.68542808 183 31 21
1.481758 0.59515995 0.68417603 183 57 60
1.4998838 0.59041333 0.68304914 172 92 86
1.5030915 0.59232759 0.68786824 175 93 86
1.4771868 0.60497397 0.68555206 182 35 28
1.4836315 0.60526478 0.68501186 185 62 65
1.4762851 0.61457086 0.68541741 182 56 56
1.4846185 0.61525947 0.68454593 185 57 56
1.4782643 0.6234172 0.68479121 183 59 56
1.4854723 0.62580788 0.68486738 186 59 59
1.4908744 0.62906474 0.68782169 184 73 80
1.4848292 0.63497657 0.68476784 186 61 59
1.4921498 0.63659269 0.68576205 186 75 83
1.4783669 0.64517421 0.68233639 177 59 51
1.4850606 0.64508593 0.68538517 184 61 59
1.4934158 0.64514178 0.68571073 185 75 81
1.4779657 0.65545416 0.68316513 181 68 70
1.4840475 0.65480947 0.68561727 186 64 62
1.4925451 0.65448451 0.68499851 185 74 78
1.4676728 0.66572571 0.68927163 173 62 48
1.4776825 0.66556174 0.68456995 178 66 61
1.4838099 0.66492099 0.68559176 185 66 63
1.4928342 0.66455406 0.68283641 185 76 83
1.4683353 0.67755556 0.68547738 175 56 46
1.4734083 0.67442745 0.68290931 174 55 45
1.4850005 0.67419642 0.68523979 186 70 70
1.4912249 0.67657316 0.68438137 189 64 58
1.4673356 0.68431967 0.68536443 175 54 46
1.4700606 0.68790299 0.68960702 176 60 48
1.4864995 0.68464643 0.68524414 187 65 64
1.4936066 0.68547088 0.68511593 188 64 57
1.4695476 0.69230783 0.6849705 175 55 48
1.4730947 0.69600856 0.68692118 177 65 61
1.4872086 0.69553083 0.68586582 186 62 58
1.493706 0.69469053 0.68389332 188 63 57
1.5014409 0.69935673 0.68092704 184 68 77
1.4694614 0.70860642 0.68909883 181 55 45
1.4745327 0.70601511 0.6860891 178 59 52
1.4855186 0.70555192 0.68514997 188 63 56
1.4935664 0.70419741 0.68304586 185 68 68
1.5023142 0.70257705 0.68146914 182 75 83
1.4683328 0.71399796 0.6876213 176 57 50
1.4754716 0.71516156 0.68500805 186 54 40
1.4840289 0.71399283 0.68437713 185 68 65
1.490345 0.71854246 0.68064862 178 74 76
1.468215 0.7271058 0.6843608 179 56 45
1.4757298 0.72491705 0.68382132 187 55 39
1.4868144 0.72438759 0.68723369 181 73 76
1.4922565 0.72610343 0.68333322 180 74 77
1.4683257 0.73472244 0.6840679 181 56 44
1.4750752 0.73499304 0.68497306 187 58 41
1.4842485 0.73510718 0.68833208 182 52 43
1.4949944 0.7351867 0.68416661 180 64 61
1.5006735 0.73716748 0.68141389 176 71 67
1.4688435 0.74337822 0.68205762 188 57 40
1.4733095 0.74521381 0.685305 182 57 44
1.4855299 0.74543148 0.68601882 180 48 40
1.4937578 0.74415815 0.68336368 177 43 32
1.5004181 0.74181968 0.68122292 187 53 46
1.4760896 0.75505203 0.68395805 179 60 51
1.4852285 0.75431621 0.68529189 178 53 49
1.4914227 0.75561655 0.68673503 180 60 59
1.4765679 0.7654503 0.68445694 176 63 58
1.4840152 0.76413989 0.68560934 184 64 58
1.4938912 0.76544744 0.68585277 181 66 67
1.4758998 0.77458018 0.6853897 175 64 59
1.4861723 0.77516389 0.68412036 185 62 53
1.4937769 0.77513808 0.68590468 182 68 69
1.4778671 0.78411913 0.68394667 175 58 49
1.4856386 0.78579843 0.68500948 180 65 61
1.4937738 0.78520119 0.6847977 186 61 58
1.4797645 0.79243892 0.68208796 175 58 51
1.4860004 0.79503781 0.68496281 184 60 51
1.4942632 0.79442585 0.68404579 182 65 67
1.4798006 0.80840826 0.68095237 187 56 38
1.4858365 0.80526209 0.68487781 185 55 44
1.4929363 0.80549765 0.68530637 178 73 80
1.4794896 0.81428522 0.68283474 178 57 46
1.4839948 0.81467259 0.68494064 186 54 41
1.4947116 0.81484789 0.68458974 176 76 85
1.5011109 0.81704104 0.68625486 172 76 82
1.477338 0.82726032 0.68619639 187 54 42
1.4834739 0.82499933 0.68407786 186 58 46
1.4955045 0.8252005 0.68369442 174 79 86
1.503764 0.82529038 0.68710107 173 80 84
1.4767541 0.83462167 0.68514872 183 60 48
1.4846107 0.83395243 0.68404126 180 82 86
1.4949919 0.83397168 0.68643981 179 84 92
1.5041956 0.83255929 0.6873799 175 81 87
1.5101994 0.83376741 0.68898851 174 79 80
1.4764391 0.84467345 0.68475229 181 62 53
1.4828564 0.84505218 0.68529814 179 72 76
1.476622 0.85478157 0.68440968 182 55 42
1.481939 0.85541397 0.68632197 176 55 50
1.4782495 0.86474699 0.68549573 185 54 40
1.484666 0.86479807 0.68584639 151 40 38
1.479489 0.87144631 0.68569583 189 53 38
1.4827958 0.8750999 0.68530422 175 51 40
1.4925104 0.87596768 0.68491793 125 44 45
1.4832603 0.8852573 0.68507898 187 53 39
1.4971908 0.88466847 0.68487602 65 48 53
1.5010372 0.88835096 0.68492275 51 47 52
1.485322 0.89535975 0.68327147 175 64 46
1.4965869 0.89632326 0.68343055 26 49 54
1.5025481 0.89523125 0.68531507 32 47 50
1.4880122 0.90493369 0.68441367 128 146 107
1.493871 0.90305132 0.68657637 68 104 89
1.5026433 0.9011662 0.68711883 29 46 51
1.4889414 0.9124037 0.68578511 98 138 120
1.4919227 0.91622531 0.68476123 90 136 125
1.4945227 0.92533535 0.68485725 89 134 126
1.4945431 0.9349367 0.68492341 85 133 124
1.5028785 0.9387942 0.68672961 85 134 128
1.4945149 0.94468284 0.68485683 86 139 130
1.5027022 0.94567961 0.68469805 84 142 135
1.4968041 0.95495063 0.68461615 85 142 133
1.5011789 0.95263964 0.6845178 84 143 134
1.4986055 0.96245307 0.68349338 81 142 134
1.5021062 0.96664846 0.68529421 84 142 137
1.5055943 0.97426879 0.68470615 115 175 169
1.5107087 0.97857904 0.68903083 124 176 169
1.5096663 0.98088902 0.68495375 136 196 184
1.5130826 0.98532605 0.68446946 141 194 182
1.5176586 0.99237067 0.68231946 155 164 154
1.5216351 0.99744153 0.68227845 120 94 92
1.5266794 1.0043306 0.68228513 115 64 60
1.5325432 1.0095323 0.68435961 126 79 72
1.4595963 1.016858 0.68783498 94 72 50
1.4656814 1.0160195 0.68605131 89 56 47
1.4746108 1.0162024 0.68481404 90 50 45
1.4831065 1.0181464 0.68443483 87 49 43
1.5156635 1.015767 0.68163913 88 39 32
1.5258099 1.0159034 0.68228644 91 44 37
1.5352529 1.015618 0.68480188 112 79 70
1.5413712 1.018067 0.68881035 156 168 152
1.4591031 1.024768 0.68576556 92 56 32
1.4644824 1.0244179 0.68484139 88 51 49
1.4721131 1.0230888 0.68208134 91 35 34
1.4883643 1.0203122 0.68470484 87 51 47
1.4948319 1.0231965 0.68395931 88 47 43
1.5044638 1.027406 0.68397135 88 51 43
1.5153577 1.0252228 0.68189692 88 40 30
1.5253876 1.0245738 0.68574286 89 63 60
1.5341547 1.023587 0.68821079 77 65 69
1.5415788 1.0221562 0.68900472 75 75 74
1.4594443 1.0330437 0.68666953 93 61 38
1.4647207 1.0345478 0.68652654 88 59 54
1.4718409 1.0358132 0.68449163 92 42 44
1.5086117 1.0307984 0.68637735 87 59 65
1.5155479 1.0327171 0.68517834 88 56 54
1.5259122 1.0349236 0.68648851 85 65 64
1.5314509 1.0356587 0.68871981 74 64 72
1.4671471 1.0449593 0.68809277 90 69 64
1.473317 1.0448103 0.68375355 91 40 43
1.4686226 1.0522248 0.68701679 91 62 49
1.4730358 1.0554755 0.68516111 90 48 47
1.4765145 1.0639278 0.68593049 90 57 49
1.4805365 1.0690923 0.68707746 89 60 62
1.4783567 1.0700907 0.68865895 85 72 76
1.4845601 1.0760112 0.6855576 90 59 52
1.4862622 1.085173 0.68532294 88 57 52
1.490844 1.0873095 0.68396246 90 48 48
1.4663607 1.0950633 0.68288547 87 43 22
1.4764818 1.0961925 0.68543923 84 54 46
1.4850602 1.0950041 0.68550605 88 57 53
1.4913146 1.0942117 0.68511367 86 54 47
1.4664084 1.1050133 0.68134356 86 37 22
1.4756037 1.1063486 0.68459576 88 49 50
1.4817289 1.1041043 0.68564898 91 57 63
1.4689162 1.1131338 0.68072474 87 39 30
1.4744436 1.1147603 0.68493086 89 52 50
1.4802405 1.1151873 0.68796206 85 68 77
1.4758739 1.1250787 0.68433988 91 50 47
1.4806563 1.1261836 0.68809408 81 64 67
1.4761835 1.1351268 0.68500048 88 52 47
1.4808683 1.1343813 0.68736225 88 69 65
1.4763882 1.1446358 0.6851064 88 54 45
1.4822214 1.1461006 0.68570536 88 58 64
1.4684509 1.1565113 0.68903714 71 62 57
1.4756368 1.1554494 0.68624568 90 61 54
1.4817574 1.1553539 0.68410707 89 51 50
1.4690974 1.162635 0.68812013 90 75 58
1.4763075 1.1646096 0.68519992 90 55 54
1.4816735 1.1644474 0.6813218 88 37 23
1.4774429 1.1738008 0.68484205 90 53 53
1.480993 1.176128 0.68147743 88 37 27
1.4826143 1.1847049 0.68242979 89 42 40
1.4846693 1.1912926 0.68239522 88 37 38
1.524851 -0.88156539 0.69338363 31 67 73
1.5067754 -0.8722586 0.69409817 35 27 29
1.5167356 -0.87367576 0.69709581 34 57 60
1.521902 -0.87644434 0.69458652 32 68 73
1.4985459 -0.86272264 0.693106 26 24 22
1.5046016 -0.86529142 0.69538283 24 26 26
1.5153267 -0.86489725 0.69507015 31 67 72
1.4965465 -0.85512984 0.69346231 27 27 27
1.5053051 -0.85525197 0.69635791 30 54 57
1.515914 -0.8551929 0.69398546 31 61 65
1.5211645 -0.853176 0.69305819 33 47 47
1.5388377 -0.85265571 0.69667953 34 41 39
1.5434438 -0.85139555 0.69691509 35 41 40
1.5543222 -0.85139394 0.69644308 37 41 40
1.560981 -0.85091656 0.69267279 34 42 41
1.4967731 -0.84551245 0.6939249 33 61 64
1.5064368 -0.84574121 0.69879824 34 71 76
1.5161997 -0.8450889 0.69369709 30 67 73
1.5210036 -0.84757233 0.69045687 29 67 72
1.5457407 -0.84528697 0.69510514 36 42 42
1.5564367 -0.84561223 0.69607037 37 41 41
1.5610582 -0.84471309 0.69421107 36 42 42
1.4953276 -0.83477092 0.6956268 33 70 75
1.5054685 -0.83417517 0.69767171 34 71 76
1.5136076 -0.83461607 0.69469911 32 68 74
1.5460622 -0.8348484 0.69467247 36 42 42
1.5584614 -0.83723611 0.69736469 39 42 41
1.5630239 -0.83759946 0.695862 36 42 41
1.4964485 -0.82934129 0.69437009 33 70 74
1.5081205 -0.82940483 0.69649726 32 70 75
1.5133101 -0.82797474 0.69390291 31 67 74
1.5470142 -0.82576299 0.69677383 37 58 60
1.5615011 -0.82128835 0.69993222 39 39 39
1.5739599 -0.82583779 0.69076174 39 41 41
1.5597726 -0.8114081 0.69862098 40 40 40
1.5615561 -0.81475395 0.69762927 41 41 41
1.5584989 -0.8049922 0.69547659 39 41 42
1.5612251 -0.80499965 0.69639975 35 42 42
1.5587382 -0.79872572 0.69390184 41 41 41
1.5627518 -0.79376131 0.69663942 41 42 42
1.5684111 -0.7862187 0.69758523 42 42 42
1.4811199 -0.77381039 0.69991755 32 73 79
1.5479932 -0.76116514 0.69971347 37 41 42
1.4951707 -0.75030994 0.6969347 41 73 79
1.5075651 -0.75279295 0.69262385 39 65 70
1.5133134 -0.75256002 0.69169098 37 58 63
1.522477 -0.75113231 0.69264805 36 39 39
1.5367875 -0.75163543 0.69670427 35 39 39
1.5442741 -0.75459498 0.69894153 36 40 39
1.4895903 -0.74414808 0.69658762 43 71 75
1.4943382 -0.74561828 0.69662625 41 72 76
1.5043466 -0.74421829 0.69364327 40 67 69
1.5149773 -0.74508083 0.6918484 36 51 53
1.5249313 -0.74547529 0.69261438 28 31 31
1.5367959 -0.74520499 0.69620156 33 34 32
1.5439309 -0.74542147 0.69853884 34 35 34
1.4985104 -0.73345667 0.69855314 44 69 71
1.5044489 -0.73489791 0.69521546 40 58 59
1.5142647 -0.73603803 0.69212818 35 44 43
1.5229206 -0.73748726 0.69228411 42 41 36
1.5365586 -0.73651695 0.69792479 44 38 35
1.5441885 -0.73897207 0.69869602 45 42 40
1.4872589 -0.72790504 0.6993857 52 75 82
1.4957691 -0.72695822 0.69738692 34 51 52
1.5053517 -0.72800463 0.69264871 30 37 38
1.5101526 -0.72846019 0.69111603 21 20 20
1.4845929 -0.7164185 0.69914329 29 55 55
1.5425352 -0.71032774 0.69864392 40 81 87
1.4689755 -0.70121384 0.6994921 43 69 69
1.5385605 -0.70877814 0.69879895 43 77 83
1.5426011 -0.7065556 0.69924092 40 79 85
1.4591457 -0.6916039 0.69926721 47 67 65
1.4635906 -0.69653744 0.69963163 45 69 70
1.5486157 -0.69207299 0.69739968 34 41 42
1.4546055 -0.68323201 0.69941384 32 48 49
1.5354874 -0.68419087 0.69936126 42 79 84
1.5486929 -0.68521142 0.69523144 35 41 43
1.5507784 -0.68228722 0.6950736 37 42 44
1.4533366 -0.6796329 0.69830585 33 47 49
1.5369639 -0.67560434 0.69814867 39 67 72
1.5480691 -0.67415488 0.69720215 37 44 46
1.5520475 -0.6746667 0.69317198 37 41 42
1.4283249 -0.66336131 0.69632095 39 59 64
1.4328539 -0.66236013 0.69835848 37 57 63
1.5378739 -0.66082025 0.69588035 27 40 41
1.5451288 -0.66568816 0.69588327 37 49 51
1.5546374 -0.66428965 0.69460475 38 41 41
1.4290957 -0.65975285 0.69452256 47 76 83
1.432649 -0.65820646 0.69656253 44 74 82
1.5356793 -0.65452951 0.69532597 20 34 35
1.543106 -0.65440673 0.69567484 37 54 57
1.5559741 -0.65478635 0.6946044 38 40 41
1.5137137 -0.64367372 0.69792289 18 103 120
1.5230274 -0.64660329 0.69867778 18 110 126
1.5368083 -0.64616477 0.69512767 22 38 41
1.5435503 -0.64526927 0.69476533 33 49 52
1.5516626 -0.6452769 0.69560939 36 38 39
1.5063221 -0.63452405 0.69594014 7 25 27
1.5112944 -0.63241011 0.69680923 8 25 29
1.5255281 -0.63235569 0.69075692 19 82 94
1.5377848 -0.63723397 0.69685322 35 58 62
1.5462123 -0.63411325 0.69556355 34 39 39
1.5517143 -0.63527346 0.69297636 14 30 32
1.5179588 -0.6226213 0.69671565 20 79 87
1.5242426 -0.62404388 0.69473588 19 85 95
1.5347763 -0.62317264 0.69279706 19 53 57
1.5466986 -0.62536216 0.69455659 26 34 35
1.5520259 -0.6241492 0.69657052 33 40 41
1.5082 -0.61475748 0.69446594 26 76 84
1.5155879 -0.61381483 0.69645131 22 83 92
1.5237167 -0.61481845 0.69434404 19 78 86
1.5347736 -0.61406708 0.69531125 13 31 33
1.5434525 -0.61514902 0.69341242 13 27 29
1.5555904 -0.61482787 0.69685072 38 41 41
1.5074779 -0.60388434 0.69719052 22 87 98
1.5148407 -0.60474855 0.69577682 21 78 86
1.5240585 -0.60526031 0.69381213 15 45 49
1.5349276 -0.60553515 0.69598252 10 26 25
1.5423179 -0.60732704 0.69295067 11 25 25
1.5578475 -0.60514933 0.69713783 40 40 41
1.5065515 -0.59434414 0.69755769 21 90 100
1.5144984 -0.59552443 0.69489747 24 65 70
1.5232671 -0.59442651 0.69177568 21 45 48
1.5335277 -0.5963766 0.69841194 28 34 33
1.5492301 -0.59063506 0.6996721 37 34 29
1.5556722 -0.59455591 0.6965726 39 36 35
1.3896399 -0.58088809 0.69005525 38 71 75
1.4989949 -0.5829621 0.69898516 12 103 116
1.5052305 -0.5841186 0.69618899 18 93 104
1.5143948 -0.58537257 0.69401228 18 64 72
1.5235134 -0.58405977 0.69228268 16 33 36
1.5359168 -0.58392477 0.69659066 42 41 37
1.5437353 -0.5833692 0.69365388 41 36 33
1.5531176 -0.58558381 0.69434464 44 34 32
1.3909013 -0.57892072 0.69112575 34 66 73
1.4972662 -0.57449615 0.6973021 23 78 86
1.5060828 -0.57535309 0.69568682 15 101 112
1.5151801 -0.57587063 0.6972717 14 43 47
1.5260382 -0.57438624 0.69446981 15 35 37
1.5356842 -0.57491279 0.69549519 26 32 31
1.542475 -0.57437623 0.69340789 46 39 36
1.5516748 -0.5760026 0.69555444 53 40 36
1.4897699 -0.56394386 0.6904965 21 73 82
1.4963565 -0.56444657 0.69566047 24 82 89
1.5042152 -0.56477439 0.69541651 17 98 110
1.5146248 -0.56541431 0.6963253 13 103 110
1.5264679 -0.56484061 0.69508862 17 51 55
1.5342665 -0.56468886 0.69609952 12 27 27
1.5443357 -0.56483722 0.694552 46 40 36
1.5512446 -0.56549585 0.69820404 57 42 39
1.4987146 -0.55692703 0.69664383 23 98 104
1.5051709 -0.5549317 0.69572824 19 98 110
1.514836 -0.55490494 0.69504315 13 97 106
1.5256151 -0.55551445 0.69500077 25 66 72
1.5388387 -0.55354947 0.69382787 39 37 34
1.5434414 -0.55540478 0.69486356 47 40 37
1.5503886 -0.55500317 0.69872284 55 39 36
1.4892447 -0.54902673 0.69887245 16 79 87
1.4935703 -0.5481236 0.69877434 16 79 87
1.5070661 -0.54617226 0.69588798 20 98 108
1.5143006 -0.5445075 0.69479966 15 97 109
1.5261389 -0.54487842 0.69488698 37 72 76
1.5384773 -0.54525888 0.69414949 34 36 34
1.5435139 -0.54371589 0.69468069 31 36 36
1.5514691 -0.5440411 0.69524562 54 37 32
1.5074912 -0.53564972 0.69725019 24 92 98
1.5140626 -0.53476697 0.69548768 18 99 108
1.5255752 -0.5349772 0.69526041 31 64 68
1.5339464 -0.53401023 0.69327408 24 43 44
1.5436317 -0.53532195 0.69541901 39 36 34
1.5517631 -0.53507519 0.69528836 50 34 31
1.5082833 -0.52470678 0.69501668 18 99 110
1.5139433 -0.52478498 0.69504833 18 96 105
1.5250871 -0.52558434 0.69608295 26 66 69
1.5335855 -0.52483445 0.69459385 36 62 65
1.5444571 -0.52482635 0.69563437 47 31 28
1.5507671 -0.52685219 0.69342119 53 37 33
1.5081218 -0.51568061 0.69380552 16 93 105
1.5142447 -0.51512945 0.69541472 18 88 96
1.525936 -0.51612633 0.69582385 32 76 81
1.5359817 -0.51527643 0.69563121 44 64 67
1.5434977 -0.51481861 0.69412398 47 38 37
1.5075214 -0.50425595 0.69488865 15 85 94
1.5126274 -0.50549805 0.69576949 20 104 111
1.5247614 -0.50459236 0.69651335 46 80 85
1.5363305 -0.50464845 0.69478458 45 46 46
1.5420249 -0.50650173 0.69559526 43 55 57
1.5053102 -0.49535158 0.69452012 16 93 105
1.5151559 -0.49527857 0.69617343 19 109 115
1.5248083 -0.49470225 0.69621509 43 69 73
1.5348264 -0.49540716 0.69519371 43 41 40
1.5415946 -0.4987165 0.6970619 40 29 27
1.497611 -0.48326501 0.69708908 28 109 116
1.5040971 -0.48597997 0.69323182 23 104 117
1.5150123 -0.48490047 0.69536853 25 97 103
1.5244844 -0.48633331 0.69537526 46 55 56
1.535236 -0.48444834 0.69534397 45 45 44
1.4879911 -0.47347826 0.69757783 24 80 88
1.4964145 -0.47398812 0.69411343 26 104 112
1.5059524 -0.47392756 0.69506377 30 93 101
1.5132507 -0.47713271 0.69546258 21 103 109
1.5234511 -0.47399926 0.69458175 45 40 39
1.5354363 -0.47557732 0.69547212 44 44 44
1.5402097 -0.47517222 0.6943627 42 76 82
1.4856535 -0.46340466 0.69787389 25 91 98
1.4950936 -0.4647285 0.69496942 30 88 93
1.5045365 -0.4644402 0.6944117 27 82 88
1.5154952 -0.46523553 0.69460136 35 56 59
1.5242895 -0.46734083 0.69552165 41 40 38
1.5337491 -0.46752456 0.69759417 36 38 38
1.4789823 -0.45321423 0.69483358 24 73 80
1.4848506 -0.45437291 0.69659799 25 86 93
1.4955921 -0.45492586 0.69581687 27 63 66
1.5051234 -0.45533514 0.69507498 22 73 79
1.5126712 -0.45539784 0.69432962 21 62 68
1.4852754 -0.4484446 0.69894034 26 95 102
1.4960752 -0.44453266 0.69573814 31 83 87
1.5042902 -0.44361848 0.69519442 21 68 72
1.5153351 -0.44296491 0.69533718 9 24 24
1.5241295 -0.44281355 0.6954717 11 27 28
1.4576651 -0.43386754 0.6957649 45 74 76
1.4643445 -0.43146884 0.69823396 30 54 58
1.470685 -0.43024418 0.69951987 37 65 69
1.4978486 -0.43621624 0.69676721 27 95 102
1.5036272 -0.43572983 0.69487828 25 89 95
1.5144149 -0.43419242 0.69525677 19 51 55
1.5229683 -0.43584496 0.69484049 10 27 28
1.5552787 -0.43314442 0.69554204 13 51 57
1.5630589 -0.43514135 0.6978209 10 40 43
1.4573678 -0.42892247 0.6971826 38 59 62
1.4650873 -0.42707658 0.69783169 29 51 52
1.4715019 -0.42739144 0.69872051 36 59 60
1.4892406 -0.42323619 0.69981098 25 43 41
1.4976987 -0.42484975 0.69579458 18 85 95
1.503055 -0.42510307 0.69595873 18 91 102
1.5157434 -0.42548969 0.69604993 19 82 92
1.5213416 -0.42501646 0.69485003 18 67 77
1.5533674 -0.42854738 0.6925655 15 49 56
1.483207 -0.41142416 0.6992802 37 71 76
1.4979941 -0.41548559 0.69513232 22 89 100
1.5042807 -0.41530195 0.69539905 20 103 119
1.515678 -0.41516295 0.69499648 21 78 90
1.522981 -0.41254213 0.69580615 23 78 90
1.5305605 -0.41021547 0.69017768 24 112 127
1.4847437 -0.40491241 0.69851613 43 79 85
1.4977412 -0.40550822 0.69589901 23 100 114
1.5044352 -0.40475982 0.69589728 23 90 103
1.5138985 -0.4060736 0.69398308 26 99 114
1.5252423 -0.40634629 0.69656265 25 91 105
1.5318779 -0.4059529 0.69385988 24 106 120
1.4868588 -0.39659423 0.69795775 44 83 88
1.4941919 -0.39424196 0.69504386 34 81 88
1.5051041 -0.39584488 0.69690949 21 112 133
1.5146613 -0.39707565 0.69692791 35 52 55
1.5237906 -0.39458615 0.69811434 34 90 102
1.5375025 -0.39383525 0.69787043 21 21 17
1.5407457 -0.39121735 0.69562232 23 18 14
1.250698 -0.38257563 0.69055116 17 110 116
1.4890558 -0.38239467 0.6973983 46 82 88
1.4954371 -0.38489226 0.69483453 30 91 102
1.5019364 -0.3862083 0.69699723 23 110 130
1.5284344 -0.38938928 0.69635659 48 82 88
1.5359313 -0.38390827 0.69354177 49 83 88
1.5432128 -0.38513014 0.69547415 25 28 27
1.2508199 -0.37996864 0.69033891 17 111 117
1.4794388 -0.37084475 0.69176102 13 109 128
1.4862857 -0.37228158 0.69590962 26 102 119
1.4959587 -0.37536269 0.69639987 22 102 117
1.5040529 -0.37450719 0.69804782 22 101 117
1.5118679 -0.37166706 0.69902396 25 112 132
1.4614788 -0.36323559 0.6989491 38 64 66
1.4779934 -0.36497623 0.69158137 20 114 135
1.4832081 -0.36504269 0.69431615 21 112 131
1.4941396 -0.36491278 0.69546634 23 109 126
1.5069602 -0.36729196 0.69636571 21 109 127
1.5140693 -0.36400637 0.69785833 25 111 128
1.5205657 -0.36168069 0.69865549 30 104 119
1.5831834 -0.36165577 0.69419819 18 112 134
1.448416 -0.35249567 0.69734764 45 82 86
1.4795861 -0.3591598 0.69039768 25 115 136
1.4858637 -0.3550289 0.69531435 18 105 124
1.492288 -0.35720319 0.69482815 22 111 129
1.5080824 -0.35302472 0.69751924 30 106 124
1.5152422 -0.35491315 0.69502372 30 78 88
1.5224305 -0.35247236 0.69686234 46 85 91
1.5864407 -0.35557246 0.6929152 19 113 132
1.4469527 -0.34592468 0.69696265 45 82 86
1.4503293 -0.34155175 0.69803202 45 82 86
1.476158 -0.34267738 0.6959936 20 65 72
1.4825906 -0.34735879 0.69832945 19 104 121
1.4916854 -0.34044415 0.69129539 26 17 12
1.5072908 -0.342374 0.69185203 19 38 39
1.5161053 -0.34542081 0.69600701 20 99 116
1.5233626 -0.34429672 0.69640923 38 91 101
1.5889771 -0.34967259 0.69127113 20 109 126
1.4677281 -0.33239621 0.69757813 34 96 108
1.4748926 -0.33533028 0.69846123 24 70 77
1.482273 -0.33310041 0.69553739 26 19 14
1.493867 -0.33428344 0.69253415 26 29 26
1.505728 -0.33713639 0.69092524 15 26 25
1.516234 -0.33381325 0.69465184 25 25 23
1.5232552 -0.33540481 0.69732004 41 74 81
1.5301375 -0.33896601 0.69996357 21 108 128
1.4648037 -0.32528231 0.69778663 37 93 103
1.4783951 -0.32508209 0.69814527 29 21 16
1.4828886 -0.32538509 0.6935252 33 27 22
1.4948351 -0.32726976 0.69133198 22 50 54
1.5065268 -0.32591349 0.69282985 26 62 66
1.5154598 -0.32454085 0.69637531 26 51 54
1.5223092 -0.32482588 0.69701517 49 81 88
1.5395813 -0.32618195 0.69032252 22 114 130
1.540483 -0.32826027 0.69039822 21 113 129
1.4648061 -0.31621385 0.69850075 47 82 88
1.4787002 -0.31971419 0.69889069 30 20 15
1.4828281 -0.31482682 0.69792694 33 24 20
1.4919735 -0.31793317 0.69010806 6 21 22
1.5046229 -0.31230158 0.69678563 29 97 111
1.5161803 -0.31470069 0.69584692 32 57 60
1.5232146 -0.3160139 0.69838417 37 73 80
1.535688 -0.31367174 0.69913971 20 55 63
1.5444516 -0.31164795 0.69766492 9 42 53
1.486376 -0.30279088 0.69800723 27 96 107
1.493573 -0.30144605 0.69657195 34 74 78
1.5050794 -0.30476668 0.69661951 26 106 123
1.5150428 -0.30496645 0.69493443 36 53 54
1.5208225 -0.30815274 0.69668418 44 88 99
1.5393291 -0.30967197 0.69943589 4 36 47
1.5468802 -0.30830774 0.69833916 6 41 54
1.5510375 -0.3044526 0.69768715 5 48 66
1.4887061 -0.29516721 0.69803351 16 66 75
1.4964894 -0.2947413 0.69745457 26 94 107
1.5040252 -0.29400936 0.6958065 25 94 108
1.514587 -0.29500315 0.69502062 34 60 64
1.5213917 -0.29093823 0.69299126 45 49 47
1.4866263 -0.28523004 0.69606417 9 15 16
1.4969281 -0.28543705 0.69699663 18 65 75
1.5053844 -0.28557068 0.69633633 18 78 93
1.515095 -0.28593659 0.6952256 30 60 67
1.5233324 -0.28447881 0.6945554 41 49 48
1.5441978 -0.28127983 0.69898725 27 87 101
1.497882 -0.27404159 0.69735217 18 111 130
1.5042249 -0.27526698 0.69462013 22 97 112
1.5142925 -0.27514499 0.6971584 40 47 46
1.5264138 -0.27518657 0.69506884 39 40 38
1.5305297 -0.27342653 0.6919533 39 38 36
1.5428696 -0.2743336 0.69740546 26 85 100
1.4767181 -0.26339996 0.69901276 25 93 107
1.4851797 -0.26418725 0.69786364 24 112 130
1.4966347 -0.26777983 0.69620299 22 117 136
1.5044662 -0.26501349 0.69465852 23 102 117
1.5147576 -0.26409176 0.69557387 35 40 38
1.5261273 -0.26484317 0.69300371 31 80 88
1.5322398 -0.26844391 0.69335288 39 49 48
1.5413418 -0.26735693 0.69719732 24 83 98
1.4693819 -0.2579824 0.69974285 19 116 133
1.4772482 -0.25804922 0.69875312 20 118 135
1.48206 -0.25897238 0.69874138 23 88 100
1.4973143 -0.25153109 0.69351947 26 92 103
1.5061553 -0.2552847 0.69454616 23 96 109
1.5133551 -0.25572243 0.69505876 34 46 46
1.5263257 -0.25550726 0.69289404 29 82 90
1.536168 -0.25371355 0.6967116 20 61 70
1.4860493 -0.24267726 0.69704825 20 118 135
1.4940252 -0.24638785 0.69434655 31 62 65
1.5051521 -0.24509348 0.69479126 21 109 125
1.5167375 -0.24572456 0.69591469 33 38 36
1.5243895 -0.24471268 0.69431818 31 47 48
1.534339 -0.24723648 0.69787264 22 74 88
1.4867104 -0.23815635 0.69713175 22 118 134
1.4964999 -0.23517537 0.69536829 27 93 104
1.5039521 -0.23418108 0.69482833 23 108 124
1.5180967 -0.23469833 0.69542485 33 39 37
1.5228413 -0.23464018 0.6973868 28 45 46
1.5316031 -0.23243298 0.69261897 26 81 97
1.4977769 -0.22496365 0.69546831 26 110 126
1.5055717 -0.22561726 0.69524634 26 86 97
1.514493 -0.22348996 0.69566661 29 89 100
1.5255554 -0.22461222 0.69534802 31 64 70
1.5307319 -0.22699624 0.69257909 27 78 91
1.1355124 -0.21151459 0.69951504 37 148 153
1.4877739 -0.21160503 0.6952005 25 106 119
1.4958864 -0.21525308 0.69560885 24 106 121
1.5052483 -0.21443091 0.69472641 31 61 67
1.5132912 -0.21544592 0.6953311 32 93 106
1.5262604 -0.2143553 0.69813097 19 47 51
1.530774 -0.21396701 0.69930446 14 25 27
1.1356387 -0.20990475 0.69972664 36 149 151
1.4541123 -0.20608278 0.69276392 34 40 38
1.4791952 -0.2008568 0.69601476 25 120 138
1.4862771 -0.20484889 0.69292706 27 98 109
1.4944983 -0.20519914 0.69476128 28 103 117
1.5053945 -0.20524605 0.69407326 36 63 69
1.5129801 -0.20524842 0.69656175 39 76 84
1.5263873 -0.2044642 0.69880426 17 39 41
1.3683108 -0.19315867 0.69944602 27 34 38
1.4553252 -0.19218995 0.6934883 37 43 40
1.460131 -0.19141196 0.69086361 40 46 44
1.4770269 -0.19370425 0.69657469 25 110 127
1.4845161 -0.19515337 0.69293499 23 102 117
1.4948817 -0.19436529 0.69207394 37 84 92
1.5049084 -0.19483605 0.69474792 41 75 82
1.5125765 -0.19369242 0.69375873 31 67 74
1.5273408 -0.19913727 0.6986621 14 35 37
1.5352908 -0.19448584 0.69748789 9 25 25
1.4462696 -0.18409587 0.69257826 36 42 40
1.4535749 -0.18744078 0.69313794 40 43 42
1.461206 -0.18887119 0.69058877 42 44 41
1.4775149 -0.18786585 0.69603813 24 100 114
1.484627 -0.18601981 0.69459528 27 113 130
1.4946547 -0.18527199 0.69488859 33 108 123
1.5056474 -0.184964 0.69428325 36 92 103
1.5130248 -0.18552744 0.69465303 32 68 75
1.5368778 -0.18792567 0.69757724 11 24 24
1.4465394 -0.17775413 0.69192302 32 40 39
1.4507344 -0.17302459 0.69085175 39 39 39
1.4886138 -0.17810708 0.69386369 27 103 120
1.4952139 -0.17399757 0.69399178 32 101 116
1.504388 -0.17517939 0.69426817 34 97 109
1.5157255 -0.17572486 0.695032 37 52 54
1.521103 -0.17218356 0.69507211 39 38 37
1.4736816 -0.16190314 0.69725901 32 66 72
1.4859433 -0.16165663 0.69319588 39 57 61
1.4951239 -0.16480273 0.6948083 35 91 103
1.5024263 -0.16741411 0.6951766 35 92 103
1.5168781 -0.16496594 0.69437277 32 80 88
1.5212545 -0.16693465 0.69333827 44 42 39
1.4674562 -0.15365241 0.69892442 25 90 104
1.4757471 -0.15601063 0.69609839 31 75 85
1.4849141 -0.1551591 0.69491041 36 67 73
1.4948243 -0.15477659 0.6952582 28 82 94
1.5037659 -0.15326929 0.6934337 24 107 124
1.5153244 -0.15504676 0.69315708 23 117 134
1.5202882 -0.15920284 0.69041693 47 44 39
1.7698789 -0.15422131 0.69303346 19 108 127
1.7724695 -0.15262766 0.69449806 20 109 128
1.463251 -0.14451768 0.69984627 17 54 65
1.4771314 -0.14329295 0.69640982 11 33 41
1.4860272 -0.1449104 0.69516367 24 62 71
1.4964434 -0.14528783 0.69521701 23 74 86
1.5047746 -0.14381796 0.69443715 25 68 77
1.5122916 -0.14487892 0.6946246 18 84 97
1.5234104 -0.14219721 0.69833702 8 22 27
1.1884981 -0.13245067 0.69703144 19 27 24
1.1910913 -0.13648161 0.69773209 19 27 25
1.4570463 -0.13567865 0.69999653 14 36 39
1.4662886 -0.13643432 0.69905019 14 34 38
1.4745497 -0.13658401 0.69802046 15 34 37
1.4857148 -0.13758029 0.69739294 18 55 63
1.496408 -0.13642769 0.6948173 17 42 46
1.5054933 -0.13527745 0.69576412 22 65 75
1.5128852 -0.13414659 0.69425565 12 64 77
1.5215948 -0.13607614 0.69816393 16 42 52
1.1880343 -0.12901355 0.69900596 21 29 26
1.4708843 -0.1213659 0.69942129 27 41 45
1.4987501 -0.12874594 0.6917513 23 39 41
1.5066539 -0.12617354 0.69607586 18 71 83
1.5140268 -0.12524559 0.6947251 13 72 86
1.5214951 -0.12170291 0.69262046 26 43 48
1.4687676 -0.1190052 0.69883531 28 41 43
1.4999934 -0.11094749 0.6929692 27 37 40
1.5064919 -0.11487269 0.69552666 23 90 104
1.5143448 -0.11537869 0.69585407 23 85 99
1.5213141 -0.11652201 0.69241446 27 47 53
1.4864786 -0.1027423 0.69777876 68 82 86
1.4982113 -0.10522036 0.69367492 35 55 59
1.5047076 -0.10490815 0.69714022 24 105 123
1.5158457 -0.10603996 0.69388074 33 75 84
1.521714 -0.10347715 0.69571716 63 87 90
1.4726416 -0.092209496 0.6959306 28 41 41
1.4882098 -0.097865902 0.69894052 74 88 92
1.4966232 -0.093959749 0.69568539 33 102 118
1.5039914 -0.095124945 0.69495094 31 91 105
1.5141956 -0.096001796 0.69130582 39 69 76
1.5223385 -0.094776571 0.69572729 68 90 93
1.4733081 -0.085665226 0.69622236 34 45 47
1.4949273 -0.084597923 0.69444293 22 98 116
1.5025601 -0.084972642 0.69465089 25 95 111
1.5162841 -0.084578499 0.69483757 62 82 85
1.5209814 -0.087405711 0.69375092 63 83 86
1.4886488 -0.071519002 0.69765651 75 91 94
1.4966372 -0.075078428 0.6952405 25 91 108
1.5029156 -0.075140812 0.6945973 33 91 106
1.5106472 -0.075611666 0.69353032 70 92 93
1.5258001 -0.071579188 0.69448191 32 40 44
1.5367081 -0.075044513 0.69283068 69 88 90
1.5405518 -0.071214348 0.69685733 72 91 93
1.488928 -0.06840986 0.69821978 74 90 93
1.4965111 -0.064745486 0.69496745 28 90 107
1.5026053 -0.065303206 0.69560158 36 94 107
1.511923 -0.064788714 0.69260633 67 88 90
1.5275168 -0.065114692 0.69556701 32 41 43
1.5313705 -0.062009141 0.69144142 30 39 41
1.5431432 -0.065599874 0.6969099 71 90 92
1.4976038 -0.055251732 0.69453526 33 81 96
1.5030457 -0.055134494 0.69553107 43 89 101
1.5132215 -0.054689791 0.69386166 59 74 75
1.5257759 -0.057688653 0.69395989 36 45 46
1.5339558 -0.05658314 0.69435114 50 60 62
1.5407267 -0.059171528 0.69218743 69 88 90
1.4872608 -0.04413024 0.69579303 36 101 114
1.4952649 -0.044834755 0.69423956 37 99 114
1.5042735 -0.045687702 0.69588864 51 87 94
1.5124702 -0.046383459 0.69189209 58 76 78
1.4752352 -0.034029279 0.69776863 65 84 84
1.4869742 -0.036780547 0.69636905 44 91 100
1.4956893 -0.034763619 0.6948598 40 92 103
1.5029902 -0.035564158 0.69579583 42 64 66
1.5195181 -0.035996515 0.6966458 37 44 42
1.5207376 -0.032385431 0.69677317 36 43 42
1.4692683 -0.02268582 0.69909239 59 78 80
1.4747218 -0.023392836 0.69824028 62 80 83
1.4866627 -0.024419624 0.69598383 51 64 63
1.4949902 -0.025283869 0.69433194 34 84 94
1.5026677 -0.022933649 0.69552064 39 53 51
1.5180297 -0.021726834 0.69812334 39 44 44
1.5213412 -0.025335601 0.69734579 38 45 45
1.468504 -0.014146878 0.69878352 47 64 67
1.4742897 -0.0149216 0.69661856 47 65 68
1.4857879 -0.014741472 0.69475186 27 40 43
1.4949123 -0.014991154 0.69485044 33 65 70
1.5025418 -0.017389273 0.69488406 37 53 51
1.4677933 -0.0069442363 0.69851905 64 81 83
1.4738021 -0.0055497792 0.69593954 57 75 76
1.4863675 -0.0067664399 0.69331419 34 52 56
1.4945903 -0.0057785157 0.69403738 33 54 56
1.5045825 -0.005814414 0.69410098 23 70 83
1.5140774 -0.0033682538 0.69595575 23 70 80
1.4680716 0.0023165883 0.69477773 16 67 85
1.4737649 0.0045766425 0.69568908 22 74 90
1.4855968 0.0069931606 0.69510084 20 60 69
1.4947075 0.0042746137 0.69465715 30 45 45
1.5059085 0.0062519866 0.6938566 26 42 46
1.512344 0.0039225449 0.6948114 18 47 54
1.4779408 0.014579076 0.69686472 14 23 28
1.4859322 0.013916864 0.69478184 23 67 79
1.4945431 0.015786432 0.69476694 32 110 127
1.5044626 0.015000981 0.69493943 32 32 31
1.4894795 0.020833205 0.69519061 10 30 45
1.4962106 0.024797875 0.69456649 85 67 69
1.5036018 0.024466915 0.69637215 42 67 73
1.5119298 0.026942609 0.69398326 39 43 39
1.52952 0.027117163 0.69871646 131 209 216
1.5352781 0.028363885 0.69513839 130 207 207
1.4871095 0.036361642 0.69515496 193 83 79
1.495742 0.035903223 0.69594395 141 72 69
1.5045769 0.035816599 0.69483131 127 69 67
1.513533 0.035921954 0.69479698 76 45 42
1.5253704 0.035776421 0.69531047 176 69 61
1.5364271 0.032243747 0.69520342 114 123 109
1.5405178 0.030436013 0.69206363 94 145 131
1.4795325 0.046682402 0.69141716 201 84 77
1.4867905 0.045221254 0.69538581 218 103 100
1.4946092 0.044935971 0.6947363 183 90 88
1.5028812 0.044473559 0.6947118 162 61 61
1.5110104 0.040872142 0.69157684 57 46 42
1.4797139 0.053369645 0.69104654 203 81 75
1.4864588 0.054468218 0.69368261 213 84 81
1.4954203 0.055100109 0.69494689 215 96 96
1.5037577 0.055167347 0.69626302 167 65 65
1.5109506 0.058716062 0.69889945 223 69 68
1.487741 0.065705754 0.69225085 224 98 95
1.4948199 0.064708322 0.69505709 229 97 96
1.5045818 0.065285966 0.69544649 154 65 62
1.5124941 0.065642193 0.69671488 190 75 71
