ply
format ascii 1.0
comment PCL generated
element vertex 1128
property float x
property float y
property float z
property uchar red
property uchar green
property uchar blue
element camera 0
property float view_px
property float view_py
property float view_pz
property float x_axisx
property float x_axisy
property float x_axisz
property float y_axisx
property float y_axisy
property float y_axisz
property float z_axisx
property float z_axisy
property float z_axisz
property float focal
property float scalex
property float scaley
property float centerx
property float centery
property int viewportx
property int viewporty
property float k1
property float k2
end_header
1.4826952 -0.054188952 0.61458105 170 42 40
1.4685645 -0.044465534 0.6158241 162 68 67
1.4738181 -0.045031451 0.61497808 154 47 41
1.4828671 -0.044576582 0.61535519 160 35 30
1.4660332 -0.034990728 0.61579651 160 72 72
1.4741768 -0.035078548 0.61458349 159 49 44
1.4823563 -0.035127211 0.61568522 141 23 13
1.4667224 -0.024865435 0.61534321 160 67 66
1.4730941 -0.024948239 0.61465776 156 47 42
1.4819671 -0.027006224 0.61488813 141 23 12
1.4596219 -0.01558944 0.61193538 123 23 7
1.4671898 -0.014609629 0.61476189 149 43 35
1.4734012 -0.01519551 0.61465037 155 52 50
1.4839001 -0.014361388 0.61481076 172 34 30
1.4592955 -0.0015462211 0.61477357 139 22 2
1.4667084 -0.0050900104 0.61533368 150 48 40
1.474054 -0.0048362035 0.61474359 161 53 53
1.4809842 -0.0080362279 0.61695147 170 29 24
1.4578161 0.005947412 0.61601979 154 70 68
1.465809 0.005018204 0.61535466 143 42 33
1.4739318 0.0050108526 0.61432147 161 49 46
1.4803455 0.0068856776 0.61852539 147 14 0
1.4582995 0.013085234 0.61663622 139 53 46
1.4668086 0.014854847 0.61517292 151 55 51
1.4743339 0.015037371 0.6150322 157 46 41
1.4808553 0.014672234 0.61447799 166 27 19
1.4497286 0.026003024 0.61065513 131 18 4
1.4547143 0.026629686 0.61367971 121 20 5
1.4665967 0.025580347 0.61589116 152 48 42
1.4736649 0.024759116 0.61473948 163 57 55
1.4807128 0.02380011 0.61197913 171 35 27
1.4568259 0.034786709 0.61304653 128 22 6
1.4663622 0.035348162 0.61506057 154 56 52
1.4737391 0.034106731 0.61476904 167 44 39
1.4808406 0.036887795 0.61850768 165 42 33
1.4583558 0.045130212 0.61423671 141 24 12
1.4658972 0.044104759 0.61504376 156 56 51
1.4728611 0.045566678 0.61526686 161 54 50
1.4801059 0.042332325 0.61990267 176 24 22
1.4385052 0.057470389 0.61675888 113 19 6
1.4455234 0.057128686 0.61419481 111 23 6
1.4569962 0.05548925 0.61548442 134 16 2
1.4654855 0.055451717 0.61493182 155 57 52
1.4733474 0.054945342 0.61500961 159 59 55
1.4446652 0.064236149 0.6153807 112 21 5
1.4566829 0.065258674 0.61563015 129 30 18
1.4649975 0.065400898 0.6150381 148 54 49
1.4727358 0.064883739 0.61473095 158 52 43
1.4584069 0.075405143 0.61587632 126 31 19
1.4658374 0.074548095 0.61400342 147 54 48
1.4719819 0.075229175 0.6155628 158 54 50
1.4572629 0.084812194 0.6155774 128 32 19
1.4667619 0.085264117 0.61420238 154 60 58
1.4720042 0.084533587 0.61585522 157 49 42
1.4576652 0.096082054 0.6150164 135 42 35
1.4663848 0.094766796 0.61483365 155 58 54
1.4715511 0.094877057 0.61616158 157 57 54
1.4579701 0.10467361 0.61547625 142 47 41
1.4663216 0.1051706 0.61493921 152 54 47
1.472697 0.10450558 0.61534476 167 68 77
1.4475605 0.11826192 0.61640841 140 52 50
1.4557153 0.11479128 0.61492223 153 63 63
1.4661537 0.11492932 0.61543423 150 52 45
1.4721558 0.11489658 0.61432976 163 64 67
1.4485635 0.12478115 0.61629653 115 23 10
1.453896 0.12481552 0.61430985 147 53 52
1.4649378 0.12486353 0.61541706 154 54 48
1.473132 0.1235943 0.61265785 159 66 69
1.4817985 0.12954727 0.61421043 154 51 43
1.4490535 0.13245323 0.61586136 113 20 7
1.4550467 0.13602246 0.61505228 130 26 14
1.4646277 0.13501473 0.61524916 154 58 56
1.47645 0.13582534 0.61397707 156 47 40
1.4811976 0.13430783 0.61525851 155 52 44
1.4497087 0.14989203 0.61469048 157 36 30
1.4566673 0.14532405 0.61525667 146 37 30
1.4650586 0.14494091 0.61509037 154 60 57
1.4729179 0.14547658 0.61362386 152 50 38
1.4473437 0.15635309 0.6141566 143 30 21
1.4560916 0.1543991 0.6156615 153 36 29
1.4651845 0.154717 0.61505461 155 62 59
1.472182 0.15512483 0.61497688 150 52 43
1.4459819 0.16507623 0.61456859 136 29 17
1.4555115 0.16530584 0.6153152 144 35 26
1.4650096 0.16491093 0.61542279 160 68 66
1.4720873 0.1639823 0.61281288 151 51 43
1.4484342 0.17487071 0.61358082 122 25 12
1.4552685 0.17482716 0.61502749 153 57 56
1.4647784 0.17396273 0.61566949 160 64 62
1.4751521 0.17444296 0.61253464 151 40 33
1.4465312 0.18593781 0.61418337 118 21 7
1.4554918 0.18426263 0.61578649 155 44 37
1.4638239 0.1856595 0.614914 164 74 82
1.4741354 0.18583737 0.61363089 151 43 34
1.4471239 0.19422522 0.61548108 117 24 10
1.4566436 0.1955581 0.61498016 147 48 45
1.4638953 0.19518314 0.6151405 158 64 66
1.4715607 0.19330034 0.61320329 151 39 32
1.4478307 0.20391074 0.61348689 115 23 9
1.4558127 0.20539299 0.61514729 145 53 49
1.4638615 0.20490812 0.61554778 155 55 54
1.4707923 0.20345636 0.61204326 149 41 33
1.4573481 0.21455124 0.6154418 148 57 53
1.4637157 0.21492089 0.61495417 157 50 46
1.4460648 0.22724973 0.61506617 113 21 6
1.4578915 0.22477724 0.61507565 153 49 43
1.463292 0.22506328 0.61507344 157 41 34
1.4711214 0.22881758 0.61628652 156 22 10
1.4466791 0.23457803 0.61615157 124 25 9
1.4572339 0.23502834 0.61591363 152 42 35
1.4632119 0.23469156 0.6143862 161 48 43
1.4712697 0.23569538 0.61508828 160 22 11
1.439504 0.24894287 0.61917949 115 18 4
1.4446956 0.24561761 0.61584473 124 25 10
1.4559476 0.2450529 0.61560965 152 42 36
1.4639016 0.24516372 0.61420399 163 49 45
1.4709181 0.244288 0.61427498 161 21 11
1.4393377 0.25153118 0.61771709 115 16 4
1.4447119 0.255546 0.61480427 125 23 9
1.4555846 0.25508204 0.61543721 152 44 39
1.4651107 0.25526518 0.61467099 161 40 31
1.470583 0.2587674 0.61095303 173 54 49
1.4390887 0.26709962 0.6182726 131 26 13
1.4458005 0.26416451 0.61510259 136 29 17
1.4559407 0.26501712 0.61567342 151 38 32
1.4640951 0.2645452 0.61455971 163 46 40
1.4712005 0.26585907 0.61386341 162 28 16
1.4392923 0.27302811 0.61754811 129 25 14
1.446619 0.27578962 0.61593997 134 23 11
1.4556487 0.27487653 0.61494875 149 37 29
1.4632922 0.2751832 0.61508352 167 49 43
1.4711989 0.27111202 0.61492652 157 26 13
1.4394979 0.28833827 0.61785322 136 47 33
1.4451355 0.28399551 0.61522925 137 27 15
1.4562826 0.28523058 0.6154868 147 31 21
1.4642224 0.28524449 0.61475611 154 42 33
1.4474741 0.29538542 0.61558199 140 40 29
1.4562211 0.29468578 0.61490583 151 35 25
1.4636136 0.29474381 0.61493182 155 44 36
1.4714853 0.29941887 0.6198253 173 68 61
1.4292125 0.30622652 0.61860079 142 65 59
1.436196 0.30237028 0.6187008 141 62 55
1.4477623 0.30465147 0.61573464 140 36 25
1.4543744 0.30524138 0.61508971 145 32 22
1.4627811 0.30469075 0.61482215 160 49 41
1.4712366 0.30235219 0.61807597 175 70 61
1.4295059 0.31945577 0.6149413 137 57 49
1.4359485 0.31930038 0.61648333 141 51 43
1.4477208 0.31563172 0.61585367 143 39 30
1.4551625 0.31484526 0.61501795 142 28 18
1.4629332 0.31494445 0.61471838 167 58 52
1.4290972 0.32298326 0.61522311 137 56 44
1.4325895 0.32507014 0.61508787 138 59 51
1.4461007 0.32501596 0.61505312 140 37 27
1.4555775 0.32519957 0.61513662 150 39 32
1.4613471 0.32401404 0.61481547 164 57 52
1.4350708 0.33452371 0.61332566 136 53 43
1.4463694 0.33574581 0.61455971 135 32 21
1.4563669 0.33488268 0.61496389 154 46 40
1.4610831 0.33469781 0.61561376 163 56 48
1.4388196 0.34153193 0.61172307 139 51 42
1.4468169 0.34449506 0.61437911 138 35 23
1.4546251 0.34519565 0.61545509 154 54 49
1.4611039 0.34389472 0.61532474 157 49 40
1.4480804 0.35162127 0.61388391 124 37 29
1.4545838 0.35492742 0.61492258 124 39 34
1.461838 0.35570168 0.61727095 114 38 39
1.4702404 0.35973346 0.61969304 72 114 131
1.449497 0.3659018 0.61778772 147 25 9
1.4558872 0.36505347 0.61465281 129 37 29
1.4620584 0.36578527 0.61494505 123 42 49
1.4718316 0.36408231 0.61901301 113 39 45
1.445917 0.37634051 0.61564547 141 27 12
1.4547126 0.37453765 0.61492628 144 42 33
1.46092 0.37387559 0.61652815 142 32 26
1.4703232 0.37494025 0.61991495 147 31 26
1.4464066 0.38592201 0.61548823 138 33 23
1.4550217 0.38461533 0.61501729 152 48 39
1.46099 0.38513154 0.61353678 136 39 22
1.4469019 0.39478102 0.61554593 141 36 26
1.4540732 0.3952527 0.61487156 147 43 30
1.4618582 0.39421207 0.61214352 131 38 16
1.4397613 0.40731785 0.61359084 130 29 12
1.4458179 0.40518174 0.61528808 145 35 24
1.4532267 0.4049789 0.61476862 146 44 31
1.461584 0.40264964 0.61098999 140 30 18
1.4396363 0.41876599 0.61396652 141 40 33
1.4451267 0.41484267 0.61525899 144 35 25
1.4532206 0.4149226 0.6153115 146 44 32
1.4603858 0.41918626 0.61954021 127 41 17
1.4390844 0.42528233 0.6154989 138 38 26
1.4462241 0.42503837 0.61511075 142 38 27
1.4533814 0.42500144 0.61502534 147 43 31
1.460341 0.4212985 0.61964601 127 41 17
1.4380435 0.43501803 0.61418909 143 43 35
1.4464203 0.43520811 0.61527348 146 43 32
1.4546541 0.43425652 0.61520392 148 44 34
1.4618243 0.43591064 0.61376327 142 32 22
1.4391855 0.44236806 0.61315817 148 52 50
1.445542 0.44520539 0.61517841 142 40 28
1.4553951 0.44534394 0.61517191 144 38 28
1.4613526 0.44312686 0.61318326 143 35 23
1.4384961 0.45678848 0.61121196 141 35 26
1.4461546 0.45495749 0.61481398 140 37 25
1.45346 0.455111 0.61492151 144 42 31
1.4388944 0.46386936 0.61279088 140 33 22
1.4463015 0.46528968 0.6144709 140 36 24
1.4522308 0.4647505 0.61557883 146 45 34
1.4370052 0.4784396 0.61372828 139 27 15
1.4465497 0.47497115 0.6144613 140 38 26
1.4531765 0.47537169 0.61577731 151 44 34
1.4377022 0.48362029 0.61363888 138 26 14
1.4449196 0.4849281 0.61520392 142 40 27
1.4519824 0.48411602 0.61589283 147 38 27
1.4389596 0.49521101 0.61152899 147 41 30
1.4459747 0.4952808 0.61487365 142 38 26
1.4515628 0.4934814 0.61534607 144 37 27
1.4395827 0.5034458 0.61361849 146 45 36
1.4450914 0.50494468 0.61527902 141 38 26
1.4504495 0.50561041 0.61380535 141 32 17
1.4398314 0.51051128 0.61898243 135 32 19
1.4454179 0.51500148 0.6149562 140 38 27
1.4504665 0.51522344 0.61640722 131 34 15
1.4390684 0.52884459 0.6130476 144 40 20
1.4455094 0.52490014 0.61513692 140 37 27
1.4513072 0.52599776 0.61569166 131 34 14
1.43945 0.5356729 0.61433077 142 44 33
1.4441754 0.53474951 0.61508256 142 36 24
1.4512677 0.53361493 0.61599576 137 26 13
1.4384222 0.54586822 0.61505264 140 28 15
1.4439304 0.54466569 0.61498666 142 36 24
1.4501612 0.54195511 0.61732501 141 21 10
1.4368069 0.55426204 0.61553156 140 27 14
1.4436696 0.55511302 0.61496073 141 39 28
1.450912 0.55580878 0.61472416 143 23 10
1.4368615 0.56532818 0.61603618 141 38 24
1.4445556 0.56462908 0.61515021 141 36 27
1.4523628 0.56615078 0.61479902 145 17 6
1.4376758 0.57482851 0.6158542 143 38 25
1.4449484 0.5751065 0.61511958 139 37 27
1.453388 0.5747878 0.61412609 144 18 7
1.4291039 0.58602118 0.6189028 140 35 28
1.4368321 0.58532172 0.61541057 142 40 25
1.444829 0.58483249 0.61460555 139 37 25
1.4530386 0.58482051 0.61410719 142 20 9
1.4288149 0.59215683 0.61932141 144 37 14
1.4368403 0.59421611 0.61529541 140 36 22
1.4442916 0.59495729 0.61469859 138 35 23
1.4521292 0.59740818 0.61425066 145 22 16
1.4379655 0.60508406 0.61491042 137 44 31
1.4439538 0.60507488 0.61485064 137 36 24
1.4521351 0.60477847 0.61538279 145 26 19
1.43847 0.61513901 0.61462134 138 51 38
1.4451052 0.61519116 0.61551285 138 35 21
1.4512922 0.61348426 0.6150158 140 29 19
1.4379101 0.62563765 0.61563402 140 37 22
1.4435706 0.62481368 0.61530554 139 37 22
1.4371551 0.63456279 0.61488563 140 35 20
1.444106 0.63547635 0.61513126 136 39 25
1.4503851 0.63325262 0.61863172 138 35 25
1.4365578 0.64591789 0.61425394 141 34 20
1.443929 0.6449514 0.61532772 137 34 23
1.4298084 0.65706205 0.61124563 146 24 17
1.4361062 0.65515977 0.61476058 141 29 17
1.4447881 0.65507191 0.61535132 137 38 23
1.4364026 0.664617 0.61478519 141 27 16
1.4440365 0.66504526 0.6153996 136 40 27
1.4503307 0.66835445 0.61050612 134 55 47
1.437901 0.67537886 0.61501318 135 24 12
1.4430832 0.67487025 0.61495793 137 40 29
1.4502035 0.67126763 0.6109283 134 54 44
1.4372698 0.68522435 0.61511874 130 30 20
1.442735 0.68502557 0.61504757 135 46 35
1.428899 0.69150674 0.61709297 138 35 18
1.4374285 0.69502705 0.61517704 136 33 21
1.4432594 0.69498509 0.61451626 133 42 32
1.4504824 0.69906992 0.61974698 150 24 20
1.4281784 0.70701414 0.61550516 136 24 14
1.4351647 0.70506513 0.6149655 133 25 10
1.4433749 0.70455229 0.61484039 137 40 30
1.4501438 0.70172805 0.61840397 148 22 18
1.4280024 0.71489936 0.61435574 129 25 13
1.4333932 0.71455681 0.61528671 135 23 13
1.4440573 0.7151534 0.61480594 139 45 33
1.4512047 0.71817005 0.61829549 150 28 22
1.4280103 0.72487634 0.61600834 132 28 15
1.4346911 0.72460485 0.61542434 138 29 18
1.4451391 0.72538829 0.61520338 137 42 29
1.4510016 0.72523785 0.61597663 149 30 24
1.4286737 0.73382908 0.61516875 128 25 10
1.4364552 0.73476553 0.61407948 137 28 17
1.4453226 0.73475641 0.61498123 139 40 30
1.4513718 0.73665607 0.61495018 137 34 21
1.4296978 0.74001074 0.6177572 156 27 24
1.4358896 0.74471462 0.61571008 130 29 15
1.4448048 0.74532074 0.61445719 139 41 32
1.452572 0.74515921 0.61518645 139 31 16
1.4373509 0.75505143 0.61401963 128 25 13
1.4445431 0.75489485 0.61535174 137 33 24
1.4519409 0.75405055 0.61464125 142 39 30
1.4233907 0.76440942 0.61959064 121 24 10
1.4359578 0.76246268 0.61200869 135 27 16
1.4454967 0.76484704 0.61535007 138 31 21
1.4507289 0.76543134 0.61350483 139 44 44
1.42827 0.77960652 0.61381024 118 24 9
1.4472605 0.77553302 0.61540717 134 31 22
1.4516317 0.77499026 0.61440885 136 52 46
1.4287152 0.78122741 0.61496645 123 20 5
1.4352454 0.78497243 0.61767972 128 33 20
1.4462622 0.7845583 0.61542451 125 52 45
1.450713 0.78466409 0.61217356 125 45 44
1.4223655 0.799546 0.6168524 122 26 9
1.4371885 0.793356 0.61636162 127 35 23
1.4450222 0.79489595 0.61488438 142 41 35
1.451142 0.7949329 0.61344582 123 32 17
1.4245044 0.8056314 0.61647338 116 29 8
1.4358795 0.80332726 0.61572719 114 28 9
1.4453473 0.8041507 0.615399 140 29 20
1.4502115 0.80050963 0.61282474 119 26 7
1.4618845 0.80145001 0.61170441 141 60 41
1.427339 0.81441486 0.61557639 115 29 10
1.4308281 0.8183859 0.61574513 115 31 12
1.4459491 0.81486738 0.6149894 148 29 24
1.4290451 0.82575828 0.61511624 117 28 6
1.4320642 0.82493967 0.61571765 116 30 10
1.4440471 0.82507974 0.61504042 145 27 22
1.42942 0.83251697 0.61401713 118 27 6
1.4326974 0.83549649 0.61475933 118 28 7
1.4441645 0.8351751 0.61497521 141 27 20
1.4286643 0.84564239 0.61441618 116 31 11
1.4341581 0.84513378 0.61525095 121 29 9
1.4438415 0.84440678 0.61496246 141 28 20
1.428894 0.85154372 0.61272049 118 32 14
1.4349759 0.85530335 0.61519295 126 29 13
1.4412742 0.85403472 0.61558515 146 27 22
1.4375019 0.86501098 0.61498398 126 29 13
1.4412103 0.86448824 0.61368227 140 28 19
1.43846 0.87380362 0.61528838 121 31 13
1.4410805 0.87634772 0.61409038 127 27 10
1.436974 0.88590044 0.61507112 120 32 15
1.4431616 0.8852061 0.61466283 129 28 12
1.4287621 0.89756066 0.61146545 127 31 16
1.4359657 0.89547712 0.61439615 120 30 11
1.4447035 0.89533609 0.6147961 124 28 10
1.4281766 0.90208691 0.61113411 126 34 16
1.4343598 0.90409034 0.61558872 116 31 9
1.4444617 0.9021228 0.61754358 131 27 15
1.4336755 0.91513044 0.61558139 118 32 12
1.4433935 0.91539681 0.61816609 140 28 20
1.4357666 0.92512929 0.61528879 124 29 11
1.4421672 0.92535746 0.61425537 128 30 16
1.4372008 0.93509012 0.61451316 129 30 15
1.4432615 0.93557489 0.61551702 121 31 16
1.4380016 0.94482058 0.61388803 132 31 20
1.4417322 0.94555181 0.61614949 121 30 12
1.4294487 0.9553358 0.61741328 122 25 1
1.4350463 0.95397455 0.61478055 125 30 14
1.4422724 0.95415044 0.61462623 119 32 15
1.4366157 0.96493453 0.61481345 125 33 18
1.4422269 0.96576339 0.61514139 120 33 17
1.4378918 0.97261453 0.61524922 119 34 16
1.443168 0.97528279 0.61465591 138 36 28
1.4391212 0.98351574 0.6194886 138 32 25
1.4433628 0.98461664 0.61459881 137 35 27
1.4395133 0.99756175 0.61921263 136 37 27
1.4427341 0.99452072 0.61607832 137 38 29
1.4375477 1.0047362 0.61652225 137 40 31
1.4429401 1.0031103 0.61261082 136 41 33
1.4432724 1.0151114 0.61123431 137 46 37
1.4432887 1.0259182 0.61334383 139 50 43
1.4437838 1.0353966 0.61750543 141 52 44
1.4378333 1.0481119 0.61807561 138 48 42
1.4426156 1.045007 0.61498547 139 53 46
1.4362988 1.0551215 0.61597914 136 52 45
1.4405098 1.0532625 0.61233479 138 57 50
1.4337896 1.0639713 0.6132037 138 58 52
1.4282066 1.0754476 0.61512035 135 50 42
1.4310971 1.0732113 0.6112721 137 55 49
1.428136 1.0828478 0.61820638 135 48 41
1.4355463 1.0885643 0.61324376 135 51 43
1.4346936 1.093504 0.61621916 134 47 41
1.4302536 1.1090156 0.61446744 131 48 42
1.4296647 1.1134022 0.61469716 129 48 40
1.4310204 1.1170504 0.61356986 129 51 45
1.4326305 1.1244105 0.61259657 128 53 45
1.4370819 1.1365023 0.61266679 129 49 41
1.4404777 1.1374048 0.61848187 127 38 28
1.4376941 1.1423265 0.61261588 128 46 38
1.4407651 1.1416527 0.61790979 127 37 29
1.4437532 1.1647905 0.61514997 113 49 41
1.4281198 1.2042619 0.61637914 122 50 42
1.4308622 1.217856 0.61803579 124 53 43
1.4189349 1.2289681 0.61272162 131 90 86
1.4263855 1.2279592 0.61462343 126 73 67
1.4311676 1.2247157 0.6145398 125 69 62
1.4175408 1.2340944 0.61300832 126 86 80
1.4221504 1.2332038 0.61515713 125 73 66
1.4210955 1.2408791 0.61497205 131 79 73
1.434572 1.2595117 0.61989719 124 58 52
1.4328212 1.2624382 0.61862707 126 61 57
1.518425 -1.0609254 0.62041616 148 50 37
1.5234845 -1.0642407 0.62237847 152 51 42
1.5174646 -1.0547266 0.62519383 151 46 32
1.5215768 -1.0559977 0.62516999 149 54 47
1.5179482 -1.0454329 0.62510848 150 49 37
1.5215896 -1.0444982 0.62691939 147 51 39
1.5161693 -1.034196 0.62688142 154 48 38
1.5222454 -1.0368801 0.62431031 147 48 33
1.5093353 -1.0282991 0.62243551 157 41 28
1.5161271 -1.0254729 0.62483609 154 48 37
1.5216912 -1.0255889 0.62791353 147 50 36
1.5153414 -1.0144782 0.62499142 151 51 40
1.5209829 -1.0119594 0.62968332 145 50 43
1.5097207 -1.0014555 0.62432313 160 45 29
1.5150285 -1.0059929 0.62446791 150 51 40
1.5211331 -1.0074919 0.62859607 147 52 46
1.5079054 -0.99443734 0.62325001 154 44 30
1.5127012 -0.99375224 0.62619126 148 52 41
1.5071129 -0.98547369 0.62434494 154 45 31
1.512478 -0.98418128 0.62437344 149 51 40
1.5080034 -0.9761892 0.62721992 160 43 27
1.5139802 -0.97527927 0.62495154 151 50 38
1.5092037 -0.96119487 0.628245 155 42 29
1.5126883 -0.96534628 0.62439144 151 51 39
1.5081006 -0.95422071 0.62576276 151 47 32
1.5121065 -0.95504659 0.6240797 150 54 45
1.5072453 -0.94585055 0.62431782 152 45 31
1.5133754 -0.94465303 0.62495291 147 53 42
1.5231503 -0.94615239 0.6294325 146 53 39
1.5064552 -0.9348883 0.62493765 159 43 27
1.5149293 -0.93453503 0.62477821 151 51 40
1.5215144 -0.93326372 0.62800437 151 47 34
1.5150813 -0.92532927 0.62422198 152 49 37
1.5207487 -0.92782944 0.6279363 145 49 36
1.5128237 -0.91461414 0.62473476 151 50 38
1.5097094 -0.9037652 0.6223008 156 43 30
1.5117815 -0.90523607 0.62528288 151 51 40
1.5096338 -0.89561123 0.62264663 152 46 33
1.5118982 -0.89479417 0.62524241 150 50 39
1.5225883 -0.89364266 0.62520307 151 51 37
1.5095133 -0.88097638 0.62929344 161 41 28
1.5134208 -0.88489491 0.62435526 152 51 41
1.5096564 -0.87339783 0.62296951 153 42 29
1.5124347 -0.87510687 0.62482125 153 48 37
1.5072619 -0.86312276 0.62335557 151 45 31
1.5120767 -0.86576009 0.62544262 152 52 42
1.5079203 -0.85546756 0.62461776 152 48 34
1.5113842 -0.85451841 0.62555492 149 50 39
1.5080677 -0.8451637 0.62476599 152 48 36
1.5105834 -0.84586579 0.62521255 156 44 30
1.5047358 -0.83453536 0.62487996 151 50 39
1.5104973 -0.83633059 0.62967813 161 41 28
1.5040197 -0.8252399 0.6246714 151 50 38
1.4992286 -0.81402248 0.62690359 148 52 41
1.5033177 -0.81442797 0.62485099 151 49 37
1.5035131 -0.80519354 0.62508142 151 49 38
1.4991289 -0.7930277 0.62695479 148 56 46
1.5024701 -0.79555893 0.62533641 155 44 32
1.4953996 -0.78351313 0.62742364 154 55 50
1.5041606 -0.7851882 0.62454897 158 41 32
1.4961408 -0.77386338 0.62649161 152 49 44
1.5047059 -0.77384901 0.62536871 157 44 36
1.5100625 -0.77532703 0.62054664 166 41 32
1.4988399 -0.76877457 0.6220966 150 50 52
1.5060899 -0.76547557 0.62512696 157 45 37
1.5112021 -0.76239645 0.62599045 154 43 37
1.5063403 -0.75483388 0.62447578 159 40 29
1.5108109 -0.75836617 0.62527436 154 43 37
1.5036106 -0.74471521 0.62521082 158 41 32
1.4988964 -0.73265338 0.62363005 158 44 34
1.5029775 -0.73526257 0.62502402 159 41 30
1.4975184 -0.72569352 0.62557 164 38 23
1.503979 -0.72502679 0.62499529 158 43 29
1.5106099 -0.72841537 0.62066525 156 42 35
1.4983238 -0.71616071 0.62713748 166 32 14
1.5047889 -0.71459436 0.62485522 160 42 29
1.4992596 -0.70206559 0.62589002 165 37 22
1.5038712 -0.70548892 0.62427711 161 42 31
1.4986316 -0.69534725 0.62609017 162 39 26
1.5044827 -0.69599903 0.6218797 162 44 32
1.5105968 -0.69435883 0.62078184 160 50 38
1.4843729 -0.68060946 0.62834752 170 32 16
1.496358 -0.68442422 0.62772298 161 40 28
1.5018083 -0.68968415 0.62144899 160 42 31
1.4867169 -0.67585319 0.62847561 170 30 12
1.4950346 -0.67419356 0.62664968 166 35 16
1.5040684 -0.67368537 0.62639827 160 42 33
1.5104926 -0.67384124 0.62085921 158 49 39
1.4957588 -0.66619635 0.62603313 170 31 14
1.5058725 -0.66508037 0.62462544 161 45 34
1.4973748 -0.65430045 0.62587768 170 33 18
1.5030898 -0.65482038 0.62482601 163 43 31
1.5330038 -0.65207046 0.62068754 119 25 6
1.5482954 -0.65459782 0.62009186 120 28 9
1.4988924 -0.64476633 0.62381768 162 44 34
1.5023966 -0.64534283 0.62580001 168 39 24
1.5342019 -0.64168531 0.62961894 119 25 3
1.541587 -0.6424284 0.62867546 124 22 1
1.4990855 -0.63741249 0.62613916 162 44 37
1.502179 -0.63472748 0.62496817 163 43 29
1.5426414 -0.63729906 0.62860769 123 22 1
1.5058606 -0.62823099 0.62516791 136 45 43
1.5157038 -0.62554586 0.62502933 108 86 95
1.5231947 -0.62289858 0.6255101 100 118 128
1.5366853 -0.62284654 0.62380427 103 39 39
1.5437431 -0.62473601 0.62113768 98 47 63
1.5245795 -0.61912209 0.62916285 124 124 124
1.5353872 -0.61882329 0.62861592 107 41 40
1.5475601 -0.61793274 0.62837082 66 111 131
1.5519814 -0.61346173 0.62888688 4 44 69
1.5526384 -0.60799164 0.6291104 2 44 69
1.5236733 -0.59329939 0.62433535 124 22 3
1.5383848 -0.5920971 0.62614715 37 111 124
1.5415751 -0.59483844 0.62357402 18 76 93
1.5253639 -0.58780539 0.6247105 119 30 13
1.5351083 -0.58474398 0.62476647 53 137 148
1.5277902 -0.57351059 0.62568951 73 101 103
1.5337164 -0.5751133 0.62464899 58 141 151
1.5198545 -0.56493419 0.62949586 123 25 5
1.5261259 -0.56492609 0.62496179 93 70 64
1.5327988 -0.56486571 0.6251362 57 140 151
1.5277787 -0.55472445 0.62468481 82 91 90
1.5324956 -0.55540413 0.62518185 59 141 150
1.5275383 -0.54385644 0.6232788 74 113 111
1.5309236 -0.547961 0.6249764 60 152 155
1.5187259 -0.5316301 0.62593108 122 23 5
1.5249271 -0.53487551 0.62313658 68 120 122
1.5173789 -0.5262413 0.62673455 115 35 20
1.5252562 -0.52520216 0.6231876 55 143 152
1.5316675 -0.52342302 0.62087858 92 152 156
1.509356 -0.51000023 0.62869549 126 20 3
1.5132378 -0.5148924 0.62853384 103 71 60
1.5242788 -0.51906437 0.62469453 59 166 178
1.5069808 -0.50307471 0.62725109 79 117 123
1.510601 -0.50760591 0.62735742 101 97 93
1.499079 -0.49165308 0.62621665 125 21 2
1.5029474 -0.49522141 0.62715966 76 114 124
1.4980716 -0.48468155 0.62658858 97 122 124
1.5006939 -0.48584202 0.62738121 103 62 55
1.4891485 -0.47156724 0.62481362 136 27 7
1.4935526 -0.47473609 0.62547696 129 108 114
1.5006737 -0.47835264 0.62656963 124 22 2
1.4949383 -0.46499804 0.62523049 173 42 36
1.4891046 -0.45086381 0.62666446 161 26 7
1.4947625 -0.45485434 0.62476814 169 36 28
1.5006833 -0.45262477 0.62581944 169 30 16
1.4893385 -0.44431305 0.62575406 147 27 15
1.4938428 -0.44533715 0.62525553 168 35 27
1.5026283 -0.44411311 0.62431318 171 36 28
1.48822 -0.433685 0.62392473 172 34 26
1.493881 -0.43546137 0.62522805 163 35 26
1.502871 -0.43644965 0.62590683 171 36 27
1.4885895 -0.42617705 0.62492746 165 40 33
1.4949114 -0.42455146 0.62494063 174 33 26
1.5003008 -0.42630014 0.6249696 158 23 8
1.4830278 -0.41363254 0.62748736 125 28 11
1.4946307 -0.41512683 0.62493938 176 36 29
1.50021 -0.41147479 0.62903535 163 28 14
1.485447 -0.40353498 0.62553656 135 43 28
1.4930315 -0.40486687 0.6242829 173 38 31
1.500741 -0.40600157 0.62881124 161 27 14
1.4788024 -0.3950921 0.62728536 130 46 33
1.485907 -0.39446661 0.62545574 138 55 41
1.4932048 -0.39550883 0.62446761 171 40 35
1.5018631 -0.39286578 0.62643772 175 27 18
1.487039 -0.38514495 0.62509668 142 53 41
1.4922632 -0.38525742 0.62500191 166 45 41
1.5029761 -0.38699794 0.62634081 177 27 19
1.4774903 -0.37380043 0.62669086 120 25 7
1.4861976 -0.37495372 0.62497187 150 55 46
1.4927505 -0.37533021 0.62377214 176 35 31
1.4775245 -0.36554903 0.6262154 124 33 17
1.4851042 -0.36469263 0.62526667 154 48 39
1.4916235 -0.36608016 0.62198561 175 41 41
1.5016952 -0.3645497 0.62655991 160 27 15
1.4782642 -0.35578981 0.62774158 134 55 42
1.4850545 -0.35527176 0.62501931 149 45 34
1.4911178 -0.35369822 0.62307358 162 41 35
1.5045868 -0.35726318 0.62757516 159 23 12
1.4790868 -0.34427112 0.62736136 135 59 48
1.4840922 -0.34496561 0.62502116 153 48 38
1.4913294 -0.34482059 0.6237241 154 37 30
1.5039426 -0.34723473 0.62908673 159 28 16
1.4791433 -0.33477652 0.62698811 138 61 49
1.4854354 -0.33493489 0.62436807 156 46 37
1.4922436 -0.33655417 0.62461996 145 32 20
1.4767656 -0.32463372 0.62573469 141 57 42
1.4854379 -0.32512876 0.62471104 152 50 43
1.4905466 -0.32497934 0.62496042 184 43 41
1.4697649 -0.31738696 0.62746757 143 66 50
1.4761237 -0.31612423 0.6265806 142 54 38
1.4841608 -0.3148737 0.62487739 155 51 44
1.490805 -0.3165094 0.62620783 142 33 19
1.4788965 -0.30531675 0.62385511 146 40 27
1.4835002 -0.30490983 0.62532544 150 53 44
1.4907758 -0.30614343 0.62685215 180 36 32
1.4783763 -0.29552814 0.62644303 150 37 27
1.4833926 -0.295111 0.62498707 153 53 43
1.4906415 -0.2931166 0.62218368 181 60 58
1.4783406 -0.28509426 0.62434149 138 42 29
1.4834763 -0.28509864 0.62518942 155 53 45
1.490099 -0.28937757 0.62201315 177 58 56
1.4781818 -0.27361748 0.62400162 138 55 44
1.4839278 -0.27537146 0.62520021 161 52 44
1.4782211 -0.26505339 0.62505263 136 54 41
1.4843302 -0.26490295 0.62466049 167 51 45
1.4909751 -0.26067591 0.62843668 181 63 63
1.4776704 -0.25483748 0.62538546 136 54 41
1.4846714 -0.25567889 0.6244216 173 49 45
1.4909385 -0.25534967 0.62802553 176 52 50
1.4688548 -0.24247943 0.62784553 136 61 56
1.473888 -0.24492486 0.62515497 137 53 40
1.4862039 -0.24466509 0.62478346 181 51 50
1.4919071 -0.24728748 0.62423187 177 46 44
1.4682125 -0.23546267 0.62661707 134 46 37
1.4742975 -0.23492849 0.62471962 138 56 42
1.4839814 -0.23496549 0.6254676 179 48 46
1.4916356 -0.23477459 0.62163985 175 33 26
1.4688783 -0.22515185 0.62685657 131 29 16
1.4736841 -0.22489235 0.62498766 139 53 42
1.4841297 -0.22503228 0.62483871 177 45 41
1.4906977 -0.22514172 0.62186021 187 39 31
1.4689311 -0.21507603 0.62796998 138 50 39
1.47462 -0.21463521 0.62491482 145 48 40
1.4830616 -0.21531999 0.62469691 174 41 33
1.4905801 -0.21646751 0.6224969 186 39 28
1.4686832 -0.20948401 0.62945426 144 60 62
1.4763657 -0.20551434 0.62569219 148 46 38
1.4829618 -0.2040692 0.62430674 159 48 42
1.4912815 -0.20536862 0.62163705 184 39 27
1.4690599 -0.19322279 0.62762988 154 46 39
1.4759297 -0.19475864 0.6259858 155 43 36
1.4837117 -0.19565691 0.62423337 160 55 50
1.4688002 -0.18415011 0.6249032 141 40 34
1.4751992 -0.18482104 0.62594736 154 49 43
1.4837956 -0.1849654 0.62415332 166 48 42
1.4904631 -0.18234648 0.62739551 159 25 16
1.4679341 -0.17465518 0.6253497 143 51 48
1.4750441 -0.17525499 0.62492895 154 49 41
1.4837984 -0.17415343 0.62489629 165 46 40
1.4906518 -0.17180054 0.62330425 153 35 27
1.4680837 -0.1646376 0.6260156 157 52 47
1.47357 -0.16512941 0.62485003 156 52 46
1.4841436 -0.1654285 0.62481129 167 49 43
1.4913933 -0.16535126 0.62429351 160 45 40
1.4672582 -0.15513055 0.6256339 159 48 38
1.473237 -0.15511875 0.62492698 149 54 47
1.4856175 -0.15453963 0.62476957 171 51 46
1.4909467 -0.15530491 0.62255621 167 46 43
1.4678546 -0.14471655 0.62551028 154 51 44
1.4741322 -0.14480305 0.62525535 160 51 43
1.4833678 -0.14578566 0.62489706 170 46 40
1.4910216 -0.1469188 0.62189502 172 43 42
1.4670101 -0.13595812 0.62352639 148 53 47
1.4748366 -0.13467064 0.62562782 159 48 40
1.4817995 -0.1352164 0.62510687 167 50 46
1.4685422 -0.12486478 0.62253386 156 52 41
1.4753072 -0.12509868 0.62506443 159 49 42
1.4816673 -0.12497046 0.62487334 169 57 51
1.4679408 -0.11573444 0.62376523 163 38 21
1.4749703 -0.11503245 0.62503111 160 55 49
1.4813273 -0.11560832 0.62502545 171 52 45
1.4684629 -0.10399739 0.62566131 150 53 47
1.4749699 -0.10531957 0.62469816 161 55 48
1.482777 -0.10472392 0.6250385 170 47 42
1.4684855 -0.095023997 0.6255402 153 58 55
1.4743867 -0.094951101 0.62480271 160 55 49
1.4819511 -0.095104605 0.62503684 170 48 40
1.4678628 -0.084880143 0.62505561 159 65 64
1.4739581 -0.084618002 0.62523985 161 50 42
1.4815164 -0.085799702 0.62360632 171 47 42
1.4579968 -0.073177963 0.62719721 156 81 88
1.4664639 -0.074635684 0.62436527 157 62 59
1.4737399 -0.075372167 0.62516797 162 48 41
1.4804126 -0.076756641 0.62437236 171 48 46
1.4581748 -0.068880834 0.62748837 158 85 88
1.4675908 -0.065697908 0.62535489 159 68 67
1.4726925 -0.064664304 0.62484294 158 50 44
1.4807978 -0.063543409 0.62525284 172 27 27
1.4689146 -0.056078378 0.62692493 161 66 63
1.4731034 -0.054916125 0.62463945 159 54 48
1.4822875 -0.054417714 0.62403876 172 29 29
1.4679044 -0.04406568 0.62472004 160 51 44
1.4736589 -0.04517689 0.62487918 160 51 45
1.4843872 -0.044894326 0.62518215 166 38 37
1.4676435 -0.034628373 0.62435764 161 62 57
1.4732182 -0.03502439 0.62538987 156 47 41
1.4829286 -0.035388365 0.62389511 160 37 34
1.4541521 -0.021819437 0.62696517 118 22 8
1.4676732 -0.025196318 0.62520248 161 53 50
1.4738085 -0.025007108 0.62472838 156 46 40
1.4815956 -0.026173547 0.62373209 171 41 39
1.4562942 -0.014799177 0.62644714 122 25 11
1.4675256 -0.014418801 0.62508941 151 48 41
1.4725276 -0.015485479 0.62530041 161 43 37
1.4838151 -0.012211333 0.62328023 172 44 42
1.4578714 -0.0096067786 0.62859112 113 19 5
1.4665437 -0.0051236479 0.62495691 151 49 43
1.473755 -0.0046000932 0.62547576 161 40 33
1.4817337 -0.0069917962 0.62515765 173 44 43
1.458975 0.006252592 0.628304 122 22 8
1.4656742 0.0049094609 0.62514752 151 50 44
1.4739411 0.0051061176 0.62528437 161 36 28
1.480316 0.0040642675 0.62519783 168 38 32
1.4497538 0.012136519 0.62999296 113 20 5
1.4579935 0.012077171 0.62522441 116 21 8
1.4656516 0.014625083 0.62526983 147 48 42
1.4743435 0.015302908 0.62517351 156 38 31
1.4803654 0.012341122 0.62107038 164 42 33
1.45908 0.021391908 0.62076521 140 33 22
1.4670066 0.02499328 0.62480032 151 45 38
1.4731643 0.024335535 0.62466025 160 49 44
1.4812489 0.026180096 0.62640429 178 46 46
1.4584081 0.037604049 0.62578338 141 32 20
1.4669935 0.034915015 0.62495637 156 51 46
1.4719702 0.034469966 0.62515879 160 47 41
1.4818206 0.034900971 0.62395751 175 38 36
1.4494615 0.048967391 0.62430149 113 19 4
1.4561263 0.045737103 0.62751508 137 40 31
1.4661175 0.045062304 0.62532228 156 51 44
1.4725441 0.044870079 0.62309396 159 50 43
1.4822131 0.046740983 0.62439126 169 40 34
1.4486101 0.054435872 0.62281579 112 19 4
1.4541156 0.054743953 0.62614769 124 28 16
1.4652642 0.055341553 0.62538421 155 53 45
1.4743999 0.05523679 0.62377405 163 43 34
1.4810303 0.052495889 0.62431246 164 40 34
1.4481703 0.063388422 0.62598461 112 18 3
1.4553744 0.065256745 0.62482768 115 19 5
1.465499 0.064841889 0.62515962 156 54 48
1.4725237 0.064644203 0.62422216 165 47 45
1.4567198 0.075112581 0.62551385 122 22 8
1.466066 0.074778102 0.62540865 154 54 50
1.4722689 0.075107947 0.6236164 162 55 53
1.4557284 0.08508309 0.62539428 130 29 17
1.4670426 0.085010312 0.62535119 155 56 53
1.4721777 0.084773317 0.62394911 161 54 51
1.4499128 0.098809518 0.62548751 111 19 4
1.4546632 0.094436795 0.62491566 129 30 18
1.4659586 0.09523809 0.62501079 155 53 48
1.4726245 0.094923161 0.62492383 160 56 53
1.4493544 0.10472112 0.62675524 112 19 5
1.4553261 0.10555381 0.62481415 139 44 36
1.4657656 0.1050181 0.62528419 154 51 45
1.4717425 0.1043572 0.62484193 164 51 49
1.4470402 0.11752141 0.6223554 110 19 7
1.4574119 0.11462775 0.62537038 138 33 22
1.4648275 0.11506809 0.62481779 156 53 49
1.4710233 0.11418351 0.62374759 163 51 49
1.4468496 0.12548141 0.62280393 114 20 8
1.457528 0.12505879 0.62530082 137 24 12
1.4642912 0.12482942 0.62486476 157 56 52
1.4714988 0.12524991 0.62496579 160 47 41
1.4479427 0.13271634 0.62510747 116 19 6
1.4554721 0.13540952 0.62469381 118 19 6
1.4653128 0.13502616 0.62484723 159 54 51
1.4730668 0.13636279 0.62574643 154 54 44
1.4801865 0.13524559 0.62027514 172 27 27
1.4480058 0.14665025 0.62836033 117 19 3
1.4570301 0.14558454 0.62539452 142 34 27
1.4654366 0.14485478 0.62483364 156 54 49
1.4741094 0.14510924 0.62501669 160 52 46
1.4453356 0.15606721 0.6267885 122 19 4
1.4574951 0.15507247 0.62523288 150 39 33
1.4647549 0.15523194 0.62506741 159 53 49
1.4734176 0.15496923 0.62538218 161 51 45
1.4455193 0.16355486 0.62437314 120 19 6
1.4568338 0.16436045 0.62491447 135 26 14
1.4639822 0.16474164 0.62489444 159 55 52
1.4721452 0.16429083 0.62480915 158 43 35
1.4483758 0.17438269 0.62362134 142 36 27
1.4567707 0.17555454 0.62445486 142 32 20
1.4645156 0.17448515 0.6247766 163 57 56
1.4718748 0.17382908 0.62498379 161 41 33
1.4485461 0.18713421 0.62205696 113 20 6
1.4552226 0.18468423 0.62495083 143 37 27
1.4642061 0.18508956 0.62533206 166 54 53
1.4704989 0.18513343 0.62817764 158 40 34
1.4465505 0.1943851 0.62398076 125 33 21
1.4556519 0.19504437 0.6248408 134 34 23
1.4645672 0.19507565 0.62509346 162 49 48
1.4705793 0.1954291 0.62589306 161 49 48
1.4465917 0.20356041 0.62713271 127 35 23
1.4562575 0.20553057 0.62575495 132 38 30
1.4636697 0.20497046 0.62445563 158 50 47
1.4701867 0.20082109 0.6272397 167 23 14
1.4494824 0.21059257 0.62898713 112 19 1
1.4563673 0.21494126 0.62536621 132 36 24
1.4630847 0.21492906 0.62473291 160 52 49
1.4484497 0.22614628 0.62227196 112 18 4
1.4561405 0.22528221 0.6253311 135 28 14
1.4631603 0.22492109 0.62462652 161 47 42
1.47005 0.22500186 0.62024987 155 19 9
1.4399348 0.23982096 0.62170744 112 19 6
1.4438608 0.23583218 0.62385076 120 22 7
1.456018 0.23554069 0.62533665 154 44 37
1.4620326 0.23358986 0.62480456 160 41 36
1.4395791 0.2430362 0.62195218 113 18 4
1.4450673 0.24548851 0.62419552 121 21 8
1.4556143 0.24456778 0.62537611 156 47 41
1.4632493 0.2454326 0.62454462 160 28 18
1.444429 0.25524461 0.62443453 119 19 6
1.4557593 0.25508747 0.62518543 153 44 38
1.462818 0.25516 0.62522942 162 38 30
1.4393023 0.26600057 0.62074184 118 18 4
1.4477425 0.26476073 0.62408221 139 26 16
1.4543245 0.26490363 0.62513822 144 34 25
1.4632483 0.26491764 0.62514764 164 46 40
1.43962 0.2752364 0.62155968 120 21 7
1.4457183 0.27542123 0.6243282 132 26 13
1.4553837 0.27505523 0.62507814 151 32 23
1.4634972 0.27483392 0.62512743 163 47 39
1.4703282 0.27601448 0.62724382 140 31 13
1.4393709 0.28384045 0.62322044 141 39 25
1.4455534 0.28493497 0.62525332 132 24 11
1.4555821 0.28456399 0.62513572 152 35 25
1.4633312 0.28500289 0.62492412 163 46 42
1.4453933 0.29469827 0.6254214 135 31 18
1.455698 0.29560602 0.62521619 152 32 22
1.463254 0.29465312 0.62427652 153 44 36
1.470072 0.29588395 0.62346148 159 52 40
1.4372345 0.30276251 0.6292389 128 23 9
1.4455107 0.30366957 0.6254487 133 31 18
1.4545947 0.3051194 0.62511665 147 31 21
1.4632909 0.30482477 0.6246413 163 55 49
1.4709079 0.30161023 0.62166911 176 70 63
1.4393471 0.31819478 0.62423104 148 36 25
1.4460856 0.31545818 0.62613833 144 38 26
1.4543276 0.31464419 0.62426698 147 35 26
1.4629678 0.31484124 0.62483084 169 63 57
1.437541 0.32478803 0.62861091 135 47 34
1.4450186 0.32441604 0.62480527 138 40 29
1.4540651 0.32515487 0.62465328 150 38 30
1.4628069 0.32524708 0.62515062 169 66 61
1.4374789 0.33308557 0.6280089 134 43 28
1.4466786 0.33566219 0.62517798 134 37 26
1.4557977 0.33513349 0.62495041 158 50 44
1.4614002 0.33216861 0.6251024 165 62 60
1.4473695 0.34475309 0.62570387 136 41 30
1.4547341 0.34495696 0.62429631 157 51 45
1.4609021 0.34792349 0.62147492 156 33 29
1.4483007 0.35426617 0.62625784 111 33 23
1.4534694 0.35460523 0.62473047 130 49 42
1.463434 0.35469386 0.62268066 125 39 40
1.4741577 0.35946128 0.62376899 53 101 116
1.4396948 0.3685565 0.62831014 124 22 10
1.4460112 0.36499831 0.62564129 131 23 10
1.4555025 0.36509424 0.62488097 126 44 41
1.4605932 0.36903492 0.62374103 154 17 8
1.4749345 0.36415762 0.62380129 117 68 71
1.4393909 0.37136629 0.62877059 126 23 11
1.4446238 0.37499833 0.62546182 132 24 11
1.4553146 0.37498903 0.62504846 145 40 28
1.4633707 0.37666717 0.62375188 146 28 16
1.4706874 0.37586331 0.62219667 147 27 17
1.4399016 0.38990811 0.62641132 134 33 18
1.4471105 0.38590521 0.62483317 137 37 23
1.4537578 0.38434744 0.62518275 147 40 26
1.4635024 0.38476112 0.62548453 151 26 13
1.4379542 0.39451948 0.6270141 136 32 15
1.4471902 0.39511982 0.62533021 144 41 28
1.4533551 0.39464444 0.62460983 142 31 18
1.4633436 0.39334217 0.62649328 149 22 11
1.4390965 0.4046151 0.62799335 143 31 15
1.4466112 0.40403077 0.62478691 142 36 22
1.4528245 0.40546 0.62472469 147 40 28
1.4645276 0.4075374 0.62465489 148 24 14
1.4388417 0.4126161 0.62791187 136 27 14
1.4469671 0.41552469 0.62478673 149 41 29
1.4537225 0.41507253 0.62482208 146 41 28
1.4641635 0.41481483 0.62540174 144 25 14
1.4395504 0.42880845 0.62165195 131 35 15
1.4463632 0.4251844 0.62506795 146 38 27
1.453795 0.42478499 0.62497914 143 36 23
1.461151 0.42315009 0.62491232 133 30 18
1.4390526 0.43185991 0.62191254 136 34 18
1.4468352 0.43493479 0.62517488 145 43 32
1.4535462 0.43500936 0.62435645 145 33 22
1.4600039 0.4365131 0.62091422 135 27 14
1.4373411 0.44889596 0.62646884 142 27 16
1.4467626 0.44517377 0.62483919 141 50 45
1.4531306 0.44497362 0.62463105 135 41 32
1.4363841 0.4553709 0.6266489 143 28 15
1.4460617 0.45449349 0.62507451 140 35 24
1.4524182 0.45542282 0.62536788 141 41 31
1.4365082 0.46386465 0.62551606 141 28 15
1.4451619 0.46494478 0.62556505 137 31 15
1.4526718 0.4652518 0.62464082 148 46 36
1.4368987 0.47608766 0.6253987 139 27 14
1.4456059 0.47516954 0.62509346 143 38 25
1.4523677 0.47477248 0.62444013 148 36 24
1.4385322 0.48416027 0.62501806 141 27 14
1.4448869 0.4851076 0.62505263 143 39 25
1.4526328 0.48502257 0.62421948 141 27 11
1.4370741 0.49454767 0.62651914 142 29 17
1.4456949 0.49504849 0.62521446 143 36 22
1.4512578 0.49319151 0.62336725 143 24 11
1.4377797 0.50494146 0.62724221 142 26 13
1.4452633 0.50494844 0.6249342 141 34 21
1.4504929 0.50524795 0.62548351 134 32 8
1.439236 0.51171136 0.62805063 140 28 14
1.445807 0.51493394 0.62473357 139 35 23
1.4505142 0.51764786 0.62471455 148 50 38
1.4458612 0.52486914 0.62485623 134 43 37
1.4515737 0.52582973 0.62497699 140 58 48
1.4391384 0.53784508 0.6262998 142 36 26
1.4438173 0.53456366 0.62498242 140 37 27
1.4511484 0.53187048 0.62442398 142 52 44
1.4378393 0.54568762 0.62493443 142 31 17
1.4435199 0.54486036 0.62499082 142 34 22
1.4524318 0.54714483 0.62862563 140 25 13
1.4366326 0.5548752 0.62501746 141 36 19
1.444647 0.55493283 0.62469804 141 33 21
1.4518285 0.55568361 0.62607825 143 21 9
1.4360682 0.56516278 0.62524372 142 39 23
1.4456382 0.56475991 0.62476051 142 34 23
1.4516946 0.56523412 0.62468702 145 18 9
1.4365233 0.57518619 0.62487841 143 39 23
1.4457024 0.57498723 0.62485164 141 31 19
1.4526078 0.57623112 0.62478155 143 28 17
1.4291574 0.58686382 0.62346023 142 47 32
1.4357771 0.58505118 0.62413985 142 36 21
1.444662 0.58496219 0.62548846 141 30 16
1.4517558 0.58488882 0.6249305 141 36 28
1.4288045 0.5931918 0.62264073 144 39 20
1.4356403 0.59518623 0.62463653 140 31 16
1.445299 0.59478319 0.62590748 141 37 23
1.4510455 0.59383512 0.62446058 143 29 21
1.4288664 0.60941738 0.62558168 136 37 24
1.4366271 0.60504466 0.62570429 141 31 17
1.4446924 0.60470241 0.62562573 141 32 19
1.4513683 0.6050244 0.62147528 142 31 23
1.4249027 0.61552626 0.62708074 139 25 12
1.4356676 0.612957 0.62587529 143 28 15
1.4452672 0.61535633 0.62500465 139 36 21
1.4506607 0.61559486 0.62160403 141 22 13
1.4256017 0.62481171 0.62578243 140 26 13
1.4376687 0.62671387 0.62300849 141 23 11
1.445124 0.62499249 0.62527031 139 38 22
1.4511641 0.62606692 0.62301058 139 29 17
1.4296184 0.6323269 0.62305951 139 35 20
1.4350324 0.63472778 0.62414676 139 22 9
1.4450183 0.63492322 0.62511146 139 39 24
1.4513252 0.63329577 0.62514251 144 29 19
1.4364555 0.64484388 0.62500203 138 26 13
1.4451199 0.64520973 0.62489337 139 37 24
1.4516622 0.64499539 0.62708473 147 27 14
1.438445 0.65495467 0.62545586 139 31 18
1.4439416 0.65498352 0.62468845 139 36 22
1.4503717 0.65133905 0.62361801 150 32 15
1.4380562 0.66538799 0.6250543 139 25 12
1.4426889 0.66471249 0.62485862 139 39 26
1.4383399 0.67523921 0.62540954 136 27 14
1.4422164 0.67473274 0.62478322 139 40 28
1.4376534 0.68549162 0.62502408 128 47 37
1.4418075 0.68431616 0.6249153 133 39 26
1.4298143 0.69174016 0.62036699 136 39 16
1.436184 0.69466096 0.62540263 136 32 20
1.4442695 0.69521892 0.624511 136 37 25
1.4503645 0.69728947 0.62172759 140 39 24
1.4362376 0.70500809 0.6252293 134 30 16
1.4428757 0.70414609 0.62383044 136 40 27
1.4296961 0.71630609 0.62971443 151 25 23
1.4345951 0.71494389 0.62513483 133 27 13
1.4436685 0.71516031 0.62444669 142 44 32
1.4508622 0.71756148 0.62269938 147 35 27
1.428508 0.72545105 0.62273574 139 30 21
1.4351227 0.72509313 0.62493706 136 30 19
1.4448363 0.7250604 0.62461191 142 42 31
1.4517897 0.72484535 0.62622714 141 45 32
1.4291694 0.73371285 0.62423235 124 25 8
1.436559 0.73481321 0.62450337 139 32 22
1.4445188 0.7346639 0.62504905 141 37 25
1.4516939 0.73476547 0.62486446 145 37 22
1.4362274 0.74409121 0.62414777 132 34 20
1.4430927 0.74543774 0.6255247 141 30 20
1.4533023 0.74452692 0.62345433 142 40 22
1.4250257 0.75886166 0.62273669 119 26 13
1.4377116 0.75508326 0.62601119 133 25 14
1.4439406 0.75469273 0.62501794 140 35 25
1.4536923 0.75261933 0.62443876 139 49 35
1.4234607 0.76263458 0.62223023 118 24 12
1.4379183 0.76476455 0.62718642 137 25 15
1.444342 0.76508409 0.62474072 140 32 23
1.4507732 0.76727623 0.62177086 135 50 40
1.4375455 0.7753039 0.62794721 136 29 18
1.4446172 0.77527493 0.62414968 139 36 25
1.451117 0.77370441 0.62394232 137 51 36
1.4365873 0.78568262 0.62504959 134 30 19
1.4441864 0.78478599 0.62417537 137 37 25
1.4504936 0.78369629 0.62780857 135 52 31
1.4356668 0.79487157 0.62668818 133 25 13
1.4418454 0.79420775 0.62398982 135 35 23
1.4278283 0.80623496 0.62124902 120 23 4
1.4359192 0.80575848 0.62557483 126 25 9
1.4422777 0.80401343 0.62237191 133 28 16
1.4573139 0.80453587 0.62927121 141 59 26
1.4289117 0.81538635 0.62371534 117 27 9
1.4343994 0.81518084 0.62532347 123 26 9
1.4438598 0.81419355 0.62185329 146 28 21
1.426705 0.82626843 0.6254065 114 27 10
1.4351562 0.82459968 0.62545991 123 26 12
1.4461594 0.82666427 0.62133783 146 26 22
1.4240339 0.83461523 0.62668109 113 26 10
1.4376274 0.83500564 0.62597227 129 23 9
1.4433119 0.83532047 0.62358963 145 26 21
1.4275438 0.84564954 0.62567389 118 25 9
1.434388 0.84395748 0.62487936 132 23 13
1.4412802 0.84281224 0.62198269 145 26 22
1.4278769 0.85450232 0.62634051 121 25 8
1.4341348 0.85576141 0.62466133 129 25 15
1.4407146 0.85449749 0.62148839 148 28 22
1.4283921 0.86346006 0.62739074 122 25 9
1.4360524 0.86530936 0.62483132 133 25 16
1.4403232 0.86612201 0.62119836 135 28 19
1.4365715 0.87490249 0.62520367 127 25 14
1.4404161 0.8744148 0.62258083 125 26 17
1.437785 0.88450986 0.6248914 122 25 14
1.4419558 0.88571066 0.62514538 134 25 14
1.4385953 0.8947894 0.62367004 114 27 11
1.4442403 0.89532816 0.62566555 131 24 13
1.4290963 0.9084515 0.62652606 121 25 8
1.4350315 0.90559065 0.62467593 120 26 9
1.4441544 0.90441579 0.62554938 129 24 13
1.4280947 0.91456652 0.62704366 117 24 5
1.4348463 0.91485763 0.62388003 129 27 14
1.442058 0.91476804 0.62447864 135 27 20
1.4289188 0.92152512 0.62772244 115 24 6
1.4355396 0.92539877 0.62474573 130 26 14
1.442488 0.92516935 0.6238637 132 27 19
1.4374108 0.9346143 0.62530595 127 27 15
1.4432256 0.93488967 0.62455994 120 27 18
1.4293023 0.94905484 0.62350845 119 21 8
1.4360231 0.9454475 0.62608773 119 35 23
1.4422449 0.94514269 0.62393469 116 44 35
1.4286063 0.95158947 0.62312376 120 22 7
1.4379034 0.9555977 0.62316459 132 31 19
1.4431033 0.95469642 0.62497467 118 29 18
1.4379668 0.96443892 0.62249058 135 32 22
1.4437448 0.96482307 0.62539023 123 27 16
1.4382712 0.97403741 0.62303454 129 30 19
1.4420854 0.97324616 0.62562329 133 30 21
1.4372247 0.98483568 0.62432581 139 30 24
1.440905 0.98501784 0.62703586 138 30 22
1.4370769 0.99600738 0.62482572 137 33 25
1.4405423 0.99282169 0.62139541 138 34 26
1.4372581 1.0038736 0.62648058 138 35 27
1.4390488 1.0118217 0.62899303 141 36 29
1.4409689 1.0177767 0.62910384 137 34 26
1.443179 1.0262938 0.62570089 137 39 32
1.444512 1.0352935 0.62503016 139 43 36
1.4366097 1.0470463 0.62513185 138 43 36
1.4427299 1.0425557 0.6244598 138 44 37
1.435277 1.054242 0.62468004 137 44 37
1.4372593 1.0620562 0.62440896 137 45 38
1.4283961 1.0757535 0.62941593 134 39 31
1.4297687 1.0883415 0.62151283 133 40 35
1.4318128 1.0878917 0.62569487 134 40 31
1.4332019 1.093559 0.62374943 134 41 33
1.4369012 1.1053342 0.6257295 131 39 31
1.4448583 1.1254661 0.62380576 131 41 30
1.4416257 1.1338272 0.62102908 129 40 31
1.4409679 1.1404681 0.62031561 127 36 27
1.4431778 1.1694219 0.62571293 127 35 24
1.4428164 1.1720898 0.62582999 125 34 23
1.4391494 1.1990142 0.6292299 125 33 24
1.4416932 1.1991799 0.62731683 123 33 22
1.4370145 1.2053229 0.62633759 122 34 23
1.4422077 1.2022575 0.6278345 124 32 22
1.4334918 1.2151724 0.62499374 122 36 26
1.4282644 1.2289459 0.62071979 123 46 38
1.4339718 1.2255731 0.6244092 122 38 29
1.4287174 1.2311952 0.62028909 120 43 36
1.4332194 1.2307523 0.62340212 121 40 31
1.4388496 1.258939 0.62636268 120 41 33
1.4417419 1.2576782 0.62790966 119 37 29
1.4384452 1.2633754 0.62575406 118 40 32
1.4408333 1.2637401 0.62666279 120 39 31
1.5184295 -1.0609626 0.63525558 152 42 29
1.5218651 -1.0620757 0.63792902 157 39 18
1.5180768 -1.0559094 0.63348174 151 44 31
1.5221781 -1.0541645 0.6364637 151 45 30
1.5181091 -1.0446547 0.63287294 154 42 30
1.5218441 -1.0456941 0.63530648 150 46 31
1.5180873 -1.0347784 0.63337189 149 45 34
1.5210588 -1.036531 0.63456112 149 48 35
1.5166019 -1.0247712 0.63486916 149 46 34
1.521295 -1.0255253 0.63231391 147 50 37
1.506988 -1.0106021 0.63869345 158 40 17
1.5163964 -1.0144861 0.63486558 149 47 35
1.5212712 -1.0125768 0.63235182 145 49 40
1.5081034 -1.006269 0.63845396 157 39 16
1.5149246 -1.0050496 0.63528198 152 43 29
1.5216284 -1.0088934 0.63401705 147 50 38
1.5096934 -0.99597889 0.63913393 159 41 18
1.5135543 -0.99444318 0.63502771 151 44 29
1.5091382 -0.9818731 0.63491702 157 38 20
1.5126821 -0.98560077 0.63500279 149 46 33
1.507746 -0.97427875 0.63603055 153 44 29
1.5129672 -0.97519726 0.63381791 146 48 37
1.5077327 -0.96510923 0.63545257 155 40 24
1.5116227 -0.96637321 0.63509923 149 50 37
1.5075067 -0.95519131 0.63452744 151 44 28
1.5118983 -0.95344287 0.63666105 149 47 35
1.5207258 -0.95016289 0.63200223 147 51 38
1.5057505 -0.94653821 0.63448828 156 39 23
1.5153747 -0.94615561 0.63546419 150 46 32
1.5227565 -0.94669938 0.63322568 147 48 36
1.5167185 -0.93578517 0.63509804 153 42 28
1.5211059 -0.93454319 0.63201302 153 43 31
1.5096586 -0.9220897 0.63838303 149 52 39
1.5140454 -0.92452312 0.6356532 152 43 28
1.5217257 -0.92949319 0.63113165 148 54 41
1.5091468 -0.91738236 0.63820583 150 52 39
1.5127875 -0.91455448 0.63510203 151 45 31
1.509568 -0.90160555 0.63736993 157 39 18
1.5122178 -0.90534776 0.63498908 151 45 32
1.508247 -0.89560109 0.63599181 156 39 22
1.5118946 -0.89414561 0.63431299 148 49 38
1.5052127 -0.88382173 0.63581961 157 38 21
1.515204 -0.88581157 0.63523948 148 48 36
1.5064676 -0.87633353 0.63582474 157 38 20
1.5129993 -0.87372631 0.63536936 151 44 30
1.5074279 -0.86117327 0.63259321 149 47 34
1.5138593 -0.86533105 0.63573205 151 45 30
1.5076964 -0.85598677 0.63178027 152 45 32
1.5136203 -0.85579735 0.635378 150 45 31
1.5075632 -0.84623295 0.63234955 153 43 31
